ply
format ascii 1.0
comment created by gply, a Houdini tool.
comment converted from .[b]geo
comment for more information about Houdini, try:
comment www.sidefx.com
element vertex 1387
property float x
property float y
property float z
element face 0
property list uchar int vertex_indices
end_header
-0.949999988 0.75 1.10000002 
-0.900000036 0 1.10000002 
-0.900000036 0.0500000007 1.10000002 
-0.850000024 0 1.10000002 
-0.850000024 0.0500000007 1.10000002 
-0.900000036 0.100000001 1.10000002 
-0.900000036 0.150000006 1.10000002 
-0.850000024 0.100000001 1.10000002 
-0.850000024 0.150000006 1.10000002 
-0.900000036 0.200000003 1.10000002 
-0.900000036 0.25 1.10000002 
-0.850000024 0.200000003 1.10000002 
-0.850000024 0.25 1.10000002 
-0.900000036 0.300000012 1.10000002 
-0.900000036 0.349999994 1.10000002 
-0.850000024 0.300000012 1.10000002 
-0.850000024 0.349999994 1.10000002 
-0.900000036 0.400000006 1.10000002 
-0.900000036 0.450000018 1.10000002 
-0.850000024 0.400000006 1.10000002 
-0.850000024 0.450000018 1.10000002 
-0.900000036 0.5 1.10000002 
-0.900000036 0.550000012 1.10000002 
-0.850000024 0.5 1.10000002 
-0.850000024 0.550000012 1.10000002 
-0.900000036 0.600000024 1.10000002 
-0.900000036 0.650000036 1.10000002 
-0.850000024 0.600000024 1.10000002 
-0.850000024 0.650000036 1.10000002 
-0.900000036 0.699999988 1.10000002 
-0.900000036 0.75 1.10000002 
-0.850000024 0.699999988 1.10000002 
-0.850000024 0.75 1.10000002 
-1.10000002 0.800000012 0 
-1.10000002 0.800000012 0.0500000007 
-1.10000002 0.850000024 0 
-1.10000002 0.850000024 0.0500000007 
-1.10000002 0.800000012 0.100000001 
-1.10000002 0.800000012 0.150000006 
-1.10000002 0.850000024 0.100000001 
-1.10000002 0.850000024 0.150000006 
-1.10000002 0.800000012 0.200000003 
-1.10000002 0.800000012 0.25 
-1.10000002 0.850000024 0.200000003 
-1.10000002 0.850000024 0.25 
-1.10000002 0.800000012 0.300000012 
-1.10000002 0.800000012 0.349999994 
-1.10000002 0.850000024 0.300000012 
-1.10000002 0.850000024 0.349999994 
-1.10000002 0.800000012 0.400000006 
-1.10000002 0.800000012 0.450000018 
-1.10000002 0.850000024 0.400000006 
-1.10000002 0.850000024 0.450000018 
-1.10000002 0.800000012 0.5 
-1.10000002 0.800000012 0.550000012 
-1.10000002 0.850000024 0.5 
-1.10000002 0.850000024 0.550000012 
-1.10000002 0.800000012 0.600000024 
-1.10000002 0.800000012 0.650000036 
-1.10000002 0.850000024 0.600000024 
-1.10000002 0.850000024 0.650000036 
-1.10000002 0.800000012 0.699999988 
-1.10000002 0.800000012 0.75 
-1.10000002 0.850000024 0.699999988 
-1.10000002 0.850000024 0.75 
-1.10000002 0.900000036 0 
-1.10000002 0.900000036 0.0500000007 
-1.10000002 0.949999988 0 
-1.10000002 0.949999988 0.0500000007 
-1.10000002 0.900000036 0.100000001 
-1.10000002 0.900000036 0.150000006 
-1.10000002 0.949999988 0.100000001 
-1.10000002 0.949999988 0.150000006 
-1.10000002 0.900000036 0.200000003 
-1.10000002 0.900000036 0.25 
-1.10000002 0.949999988 0.200000003 
-1.10000002 0.949999988 0.25 
-1.10000002 0.900000036 0.300000012 
-1.10000002 0.900000036 0.349999994 
-1.10000002 0.949999988 0.300000012 
-1.10000002 0.949999988 0.349999994 
-1.10000002 0.900000036 0.400000006 
-1.10000002 0.900000036 0.450000018 
-1.10000002 0.949999988 0.400000006 
-1.10000002 0.949999988 0.450000018 
-1.10000002 0.900000036 0.5 
-1.10000002 0.900000036 0.550000012 
-1.10000002 0.949999988 0.5 
-1.10000002 0.949999988 0.550000012 
-1.10000002 0.900000036 0.600000024 
-1.10000002 0.900000036 0.650000036 
-1.10000002 0.949999988 0.600000024 
-1.10000002 0.949999988 0.650000036 
-1.10000002 0.900000036 0.699999988 
-1.10000002 0.900000036 0.75 
-1.10000002 0.949999988 0.699999988 
-1.10000002 0.949999988 0.75 
-1.10000002 1 0 
-1.10000002 1 0.0500000007 
-1.05000007 1 0 
-1.05000007 1 0.0500000007 
-1.10000002 1 0.100000001 
-1.10000002 1 0.150000006 
-1.05000007 1 0.100000001 
-1.05000007 1 0.150000006 
-1.10000002 1 0.200000003 
-1.10000002 1 0.25 
-1.05000007 1 0.200000003 
-1.05000007 1 0.25 
-1.10000002 1 0.300000012 
-1.10000002 1 0.349999994 
-1.05000007 1 0.300000012 
-1.05000007 1 0.349999994 
-1.10000002 1 0.400000006 
-1.10000002 1 0.450000018 
-1.05000007 1 0.400000006 
-1.05000007 1 0.450000018 
-1.10000002 1 0.5 
-1.10000002 1 0.550000012 
-1.05000007 1 0.5 
-1.05000007 1 0.550000012 
-1.10000002 1 0.600000024 
-1.10000002 1 0.650000036 
-1.05000007 1 0.600000024 
-1.05000007 1 0.650000036 
-1.10000002 1 0.699999988 
-1.10000002 1 0.75 
-1.05000007 1 0.699999988 
-1.05000007 1 0.75 
-1 1 0 
-1 1 0.0500000007 
-1 1 0.100000001 
-1 1 0.150000006 
-1 1 0.200000003 
-1 1 0.25 
-1 1 0.300000012 
-1 1 0.349999994 
-1 1 0.400000006 
-1 1 0.450000018 
-1 1 0.5 
-1 1 0.550000012 
-1 1 0.600000024 
-1 1 0.650000036 
-1 1 0.699999988 
-1 1 0.75 
-1.10000002 0.800000012 0.800000012 
-1.10000002 0.800000012 0.850000024 
-1.10000002 0.850000024 0.800000012 
-1.10000002 0.850000024 0.850000024 
-1.10000002 0.800000012 0.900000036 
-1.10000002 0.800000012 0.949999988 
-1.10000002 0.850000024 0.900000036 
-1.10000002 0.850000024 0.949999988 
-1.10000002 0.800000012 1 
-1.10000002 0.800000012 1.05000007 
-1.10000002 0.850000024 1 
-1.10000002 0.850000024 1.05000007 
-1.10000002 0.800000012 1.10000002 
-1.10000002 0.850000024 1.10000002 
-1.05000007 0.800000012 1.10000002 
-1.05000007 0.850000024 1.10000002 
-1.10000002 0.900000036 0.800000012 
-1.10000002 0.900000036 0.850000024 
-1.10000002 0.949999988 0.800000012 
-1.10000002 0.949999988 0.850000024 
-1.10000002 0.900000036 0.900000036 
-1.10000002 0.900000036 0.949999988 
-1.10000002 0.949999988 0.900000036 
-1.10000002 0.949999988 0.949999988 
-1.10000002 0.900000036 1 
-1.10000002 0.900000036 1.05000007 
-1.10000002 0.949999988 1 
-1.10000002 0.949999988 1.05000007 
-1.10000002 0.900000036 1.10000002 
-1.10000002 0.949999988 1.10000002 
-1.05000007 0.900000036 1.10000002 
-1.05000007 0.949999988 1.10000002 
-1.10000002 1 0.800000012 
-1.10000002 1 0.850000024 
-1.05000007 1 0.800000012 
-1.05000007 1 0.850000024 
-1.10000002 1 0.900000036 
-1.10000002 1 0.949999988 
-1.05000007 1 0.900000036 
-1.05000007 1 0.949999988 
-1.10000002 1 1 
-1.10000002 1 1.05000007 
-1.05000007 1 1 
-1.05000007 1 1.05000007 
-1.10000002 1 1.10000002 
-1.05000007 1 1.10000002 
-1 0.800000012 1.10000002 
-1 0.850000024 1.10000002 
-0.949999988 0.800000012 1.10000002 
-0.949999988 0.850000024 1.10000002 
-1 0.900000036 1.10000002 
-1 0.949999988 1.10000002 
-0.949999988 0.900000036 1.10000002 
-0.949999988 0.949999988 1.10000002 
-1 1 0.800000012 
-1 1 0.850000024 
-1 1 0.900000036 
-1 1 0.949999988 
-1 1 1 
-1 1 1.05000007 
-0.949999988 1 1 
-0.949999988 1 1.05000007 
-1 1 1.10000002 
-0.949999988 1 1.10000002 
-0.900000036 0.800000012 1.10000002 
-0.900000036 0.850000024 1.10000002 
-0.850000024 0.800000012 1.10000002 
-0.850000024 0.850000024 1.10000002 
-0.900000036 0.900000036 1.10000002 
-0.900000036 0.949999988 1.10000002 
-0.850000024 0.900000036 1.10000002 
-0.850000024 0.949999988 1.10000002 
-0.900000036 1 1 
-0.900000036 1 1.05000007 
-0.850000024 1 1 
-0.850000024 1 1.05000007 
-0.900000036 1 1.10000002 
-0.850000024 1 1.10000002 
-0.800000012 0 1.10000002 
-0.800000012 0.0500000007 1.10000002 
-0.75 0 1.10000002 
-0.75 0.0500000007 1.10000002 
-0.800000012 0.100000001 1.10000002 
-0.800000012 0.150000006 1.10000002 
-0.75 0.100000001 1.10000002 
-0.75 0.150000006 1.10000002 
-0.800000012 0.200000003 1.10000002 
-0.800000012 0.25 1.10000002 
-0.75 0.200000003 1.10000002 
-0.75 0.25 1.10000002 
-0.800000012 0.300000012 1.10000002 
-0.800000012 0.349999994 1.10000002 
-0.75 0.300000012 1.10000002 
-0.75 0.349999994 1.10000002 
-0.800000012 0.400000006 1.10000002 
-0.800000012 0.450000018 1.10000002 
-0.75 0.400000006 1.10000002 
-0.75 0.450000018 1.10000002 
-0.800000012 0.5 1.10000002 
-0.800000012 0.550000012 1.10000002 
-0.75 0.5 1.10000002 
-0.75 0.550000012 1.10000002 
-0.800000012 0.600000024 1.10000002 
-0.800000012 0.650000036 1.10000002 
-0.75 0.600000024 1.10000002 
-0.75 0.650000036 1.10000002 
-0.800000012 0.699999988 1.10000002 
-0.800000012 0.75 1.10000002 
-0.75 0.699999988 1.10000002 
-0.75 0.75 1.10000002 
-0.699999988 0 1.10000002 
-0.699999988 0.0500000007 1.10000002 
-0.650000036 0 1.10000002 
-0.650000036 0.0500000007 1.10000002 
-0.699999988 0.100000001 1.10000002 
-0.699999988 0.150000006 1.10000002 
-0.650000036 0.100000001 1.10000002 
-0.650000036 0.150000006 1.10000002 
-0.699999988 0.200000003 1.10000002 
-0.699999988 0.25 1.10000002 
-0.650000036 0.200000003 1.10000002 
-0.650000036 0.25 1.10000002 
-0.699999988 0.300000012 1.10000002 
-0.699999988 0.349999994 1.10000002 
-0.650000036 0.300000012 1.10000002 
-0.650000036 0.349999994 1.10000002 
-0.699999988 0.400000006 1.10000002 
-0.699999988 0.450000018 1.10000002 
-0.650000036 0.400000006 1.10000002 
-0.650000036 0.450000018 1.10000002 
-0.699999988 0.5 1.10000002 
-0.699999988 0.550000012 1.10000002 
-0.650000036 0.5 1.10000002 
-0.650000036 0.550000012 1.10000002 
-0.699999988 0.600000024 1.10000002 
-0.699999988 0.650000036 1.10000002 
-0.650000036 0.600000024 1.10000002 
-0.650000036 0.650000036 1.10000002 
-0.699999988 0.699999988 1.10000002 
-0.699999988 0.75 1.10000002 
-0.650000036 0.699999988 1.10000002 
-0.650000036 0.75 1.10000002 
-0.600000024 0 1.10000002 
-0.600000024 0.0500000007 1.10000002 
-0.550000012 0 1.10000002 
-0.550000012 0.0500000007 1.10000002 
-0.600000024 0.100000001 1.10000002 
-0.600000024 0.150000006 1.10000002 
-0.550000012 0.100000001 1.10000002 
-0.550000012 0.150000006 1.10000002 
-0.600000024 0.200000003 1.10000002 
-0.600000024 0.25 1.10000002 
-0.550000012 0.200000003 1.10000002 
-0.550000012 0.25 1.10000002 
-0.600000024 0.300000012 1.10000002 
-0.600000024 0.349999994 1.10000002 
-0.550000012 0.300000012 1.10000002 
-0.550000012 0.349999994 1.10000002 
-0.600000024 0.400000006 1.10000002 
-0.600000024 0.450000018 1.10000002 
-0.550000012 0.400000006 1.10000002 
-0.550000012 0.450000018 1.10000002 
-0.600000024 0.5 1.10000002 
-0.600000024 0.550000012 1.10000002 
-0.550000012 0.5 1.10000002 
-0.550000012 0.550000012 1.10000002 
-0.600000024 0.600000024 1.10000002 
-0.600000024 0.650000036 1.10000002 
-0.550000012 0.600000024 1.10000002 
-0.550000012 0.650000036 1.10000002 
-0.600000024 0.699999988 1.10000002 
-0.600000024 0.75 1.10000002 
-0.550000012 0.699999988 1.10000002 
-0.550000012 0.75 1.10000002 
-0.5 0 1.10000002 
-0.5 0.0500000007 1.10000002 
-0.450000018 0 1.10000002 
-0.450000018 0.0500000007 1.10000002 
-0.5 0.100000001 1.10000002 
-0.5 0.150000006 1.10000002 
-0.450000018 0.100000001 1.10000002 
-0.450000018 0.150000006 1.10000002 
-0.5 0.200000003 1.10000002 
-0.5 0.25 1.10000002 
-0.450000018 0.200000003 1.10000002 
-0.450000018 0.25 1.10000002 
-0.5 0.300000012 1.10000002 
-0.5 0.349999994 1.10000002 
-0.450000018 0.300000012 1.10000002 
-0.450000018 0.349999994 1.10000002 
-0.5 0.400000006 1.10000002 
-0.5 0.450000018 1.10000002 
-0.450000018 0.400000006 1.10000002 
-0.450000018 0.450000018 1.10000002 
-0.5 0.5 1.10000002 
-0.5 0.550000012 1.10000002 
-0.450000018 0.5 1.10000002 
-0.450000018 0.550000012 1.10000002 
-0.5 0.600000024 1.10000002 
-0.5 0.650000036 1.10000002 
-0.450000018 0.600000024 1.10000002 
-0.450000018 0.650000036 1.10000002 
-0.5 0.699999988 1.10000002 
-0.5 0.75 1.10000002 
-0.450000018 0.699999988 1.10000002 
-0.450000018 0.75 1.10000002 
-0.400000006 0 1.10000002 
-0.400000006 0.0500000007 1.10000002 
-0.349999994 0 1.10000002 
-0.349999994 0.0500000007 1.10000002 
-0.400000006 0.100000001 1.10000002 
-0.400000006 0.150000006 1.10000002 
-0.349999994 0.100000001 1.10000002 
-0.349999994 0.150000006 1.10000002 
-0.400000006 0.200000003 1.10000002 
-0.400000006 0.25 1.10000002 
-0.349999994 0.200000003 1.10000002 
-0.349999994 0.25 1.10000002 
-0.400000006 0.300000012 1.10000002 
-0.400000006 0.349999994 1.10000002 
-0.349999994 0.300000012 1.10000002 
-0.349999994 0.349999994 1.10000002 
-0.400000006 0.400000006 1.10000002 
-0.400000006 0.450000018 1.10000002 
-0.349999994 0.400000006 1.10000002 
-0.349999994 0.450000018 1.10000002 
-0.400000006 0.5 1.10000002 
-0.400000006 0.550000012 1.10000002 
-0.349999994 0.5 1.10000002 
-0.349999994 0.550000012 1.10000002 
-0.400000006 0.600000024 1.10000002 
-0.400000006 0.650000036 1.10000002 
-0.349999994 0.600000024 1.10000002 
-0.349999994 0.650000036 1.10000002 
-0.400000006 0.699999988 1.10000002 
-0.400000006 0.75 1.10000002 
-0.349999994 0.699999988 1.10000002 
-0.349999994 0.75 1.10000002 
-0.300000012 0 1.10000002 
-0.300000012 0.0500000007 1.10000002 
-0.25 0 1.10000002 
-0.25 0.0500000007 1.10000002 
-0.300000012 0.100000001 1.10000002 
-0.300000012 0.150000006 1.10000002 
-0.25 0.100000001 1.10000002 
-0.25 0.150000006 1.10000002 
-0.300000012 0.200000003 1.10000002 
-0.300000012 0.25 1.10000002 
-0.25 0.200000003 1.10000002 
-0.25 0.25 1.10000002 
-0.300000012 0.300000012 1.10000002 
-0.300000012 0.349999994 1.10000002 
-0.25 0.300000012 1.10000002 
-0.25 0.349999994 1.10000002 
-0.300000012 0.400000006 1.10000002 
-0.300000012 0.450000018 1.10000002 
-0.25 0.400000006 1.10000002 
-0.25 0.450000018 1.10000002 
-0.300000012 0.5 1.10000002 
-0.300000012 0.550000012 1.10000002 
-0.25 0.5 1.10000002 
-0.25 0.550000012 1.10000002 
-0.300000012 0.600000024 1.10000002 
-0.300000012 0.650000036 1.10000002 
-0.25 0.600000024 1.10000002 
-0.25 0.650000036 1.10000002 
-0.300000012 0.699999988 1.10000002 
-0.300000012 0.75 1.10000002 
-0.25 0.699999988 1.10000002 
-0.25 0.75 1.10000002 
-0.200000003 0 1.10000002 
-0.200000003 0.0500000007 1.10000002 
-0.150000006 0 1.10000002 
-0.150000006 0.0500000007 1.10000002 
-0.200000003 0.100000001 1.10000002 
-0.200000003 0.150000006 1.10000002 
-0.150000006 0.100000001 1.10000002 
-0.150000006 0.150000006 1.10000002 
-0.200000003 0.200000003 1.10000002 
-0.200000003 0.25 1.10000002 
-0.150000006 0.200000003 1.10000002 
-0.150000006 0.25 1.10000002 
-0.200000003 0.300000012 1.10000002 
-0.200000003 0.349999994 1.10000002 
-0.150000006 0.300000012 1.10000002 
-0.150000006 0.349999994 1.10000002 
-0.200000003 0.400000006 1.10000002 
-0.200000003 0.450000018 1.10000002 
-0.150000006 0.400000006 1.10000002 
-0.150000006 0.450000018 1.10000002 
-0.200000003 0.5 1.10000002 
-0.200000003 0.550000012 1.10000002 
-0.150000006 0.5 1.10000002 
-0.150000006 0.550000012 1.10000002 
-0.200000003 0.600000024 1.10000002 
-0.200000003 0.650000036 1.10000002 
-0.150000006 0.600000024 1.10000002 
-0.150000006 0.650000036 1.10000002 
-0.200000003 0.699999988 1.10000002 
-0.200000003 0.75 1.10000002 
-0.150000006 0.699999988 1.10000002 
-0.150000006 0.75 1.10000002 
-0.100000001 0 1.10000002 
-0.100000001 0.0500000007 1.10000002 
-0.0500000007 0 1.10000002 
-0.0500000007 0.0500000007 1.10000002 
-0.100000001 0.100000001 1.10000002 
-0.100000001 0.150000006 1.10000002 
-0.0500000007 0.100000001 1.10000002 
-0.0500000007 0.150000006 1.10000002 
-0.100000001 0.200000003 1.10000002 
-0.100000001 0.25 1.10000002 
-0.0500000007 0.200000003 1.10000002 
-0.0500000007 0.25 1.10000002 
-0.100000001 0.300000012 1.10000002 
-0.100000001 0.349999994 1.10000002 
-0.0500000007 0.300000012 1.10000002 
-0.0500000007 0.349999994 1.10000002 
-0.100000001 0.400000006 1.10000002 
-0.100000001 0.450000018 1.10000002 
-0.0500000007 0.400000006 1.10000002 
-0.0500000007 0.450000018 1.10000002 
-0.100000001 0.5 1.10000002 
-0.100000001 0.550000012 1.10000002 
-0.0500000007 0.5 1.10000002 
-0.0500000007 0.550000012 1.10000002 
-0.100000001 0.600000024 1.10000002 
-0.100000001 0.650000036 1.10000002 
-0.0500000007 0.600000024 1.10000002 
-0.0500000007 0.650000036 1.10000002 
-0.100000001 0.699999988 1.10000002 
-0.100000001 0.75 1.10000002 
-0.0500000007 0.699999988 1.10000002 
-0.0500000007 0.75 1.10000002 
-0.800000012 0.800000012 1.10000002 
-0.800000012 0.850000024 1.10000002 
-0.75 0.800000012 1.10000002 
-0.75 0.850000024 1.10000002 
-0.800000012 0.900000036 1.10000002 
-0.800000012 0.949999988 1.10000002 
-0.75 0.900000036 1.10000002 
-0.75 0.949999988 1.10000002 
-0.800000012 1 1 
-0.800000012 1 1.05000007 
-0.75 1 1 
-0.75 1 1.05000007 
-0.800000012 1 1.10000002 
-0.75 1 1.10000002 
-0.699999988 0.800000012 1.10000002 
-0.699999988 0.850000024 1.10000002 
-0.650000036 0.800000012 1.10000002 
-0.650000036 0.850000024 1.10000002 
-0.699999988 0.900000036 1.10000002 
-0.699999988 0.949999988 1.10000002 
-0.650000036 0.900000036 1.10000002 
-0.650000036 0.949999988 1.10000002 
-0.699999988 1 1 
-0.699999988 1 1.05000007 
-0.650000036 1 1 
-0.650000036 1 1.05000007 
-0.699999988 1 1.10000002 
-0.650000036 1 1.10000002 
-0.600000024 0.800000012 1.10000002 
-0.600000024 0.850000024 1.10000002 
-0.550000012 0.800000012 1.10000002 
-0.550000012 0.850000024 1.10000002 
-0.600000024 0.900000036 1.10000002 
-0.600000024 0.949999988 1.10000002 
-0.550000012 0.900000036 1.10000002 
-0.550000012 0.949999988 1.10000002 
-0.600000024 1 1 
-0.600000024 1 1.05000007 
-0.550000012 1 1 
-0.550000012 1 1.05000007 
-0.600000024 1 1.10000002 
-0.550000012 1 1.10000002 
-0.5 0.800000012 1.10000002 
-0.5 0.850000024 1.10000002 
-0.450000018 0.800000012 1.10000002 
-0.450000018 0.850000024 1.10000002 
-0.5 0.900000036 1.10000002 
-0.5 0.949999988 1.10000002 
-0.450000018 0.900000036 1.10000002 
-0.450000018 0.949999988 1.10000002 
-0.5 1 1 
-0.5 1 1.05000007 
-0.450000018 1 1 
-0.450000018 1 1.05000007 
-0.5 1 1.10000002 
-0.450000018 1 1.10000002 
-0.400000006 0.800000012 1.10000002 
-0.400000006 0.850000024 1.10000002 
-0.349999994 0.800000012 1.10000002 
-0.349999994 0.850000024 1.10000002 
-0.400000006 0.900000036 1.10000002 
-0.400000006 0.949999988 1.10000002 
-0.349999994 0.900000036 1.10000002 
-0.349999994 0.949999988 1.10000002 
-0.400000006 1 1 
-0.400000006 1 1.05000007 
-0.349999994 1 1 
-0.349999994 1 1.05000007 
-0.400000006 1 1.10000002 
-0.349999994 1 1.10000002 
-0.300000012 0.800000012 1.10000002 
-0.300000012 0.850000024 1.10000002 
-0.25 0.800000012 1.10000002 
-0.25 0.850000024 1.10000002 
-0.300000012 0.900000036 1.10000002 
-0.300000012 0.949999988 1.10000002 
-0.25 0.900000036 1.10000002 
-0.25 0.949999988 1.10000002 
-0.300000012 1 1 
-0.300000012 1 1.05000007 
-0.25 1 1 
-0.25 1 1.05000007 
-0.300000012 1 1.10000002 
-0.25 1 1.10000002 
-0.200000003 0.800000012 1.10000002 
-0.200000003 0.850000024 1.10000002 
-0.150000006 0.800000012 1.10000002 
-0.150000006 0.850000024 1.10000002 
-0.200000003 0.900000036 1.10000002 
-0.200000003 0.949999988 1.10000002 
-0.150000006 0.900000036 1.10000002 
-0.150000006 0.949999988 1.10000002 
-0.200000003 1 1 
-0.200000003 1 1.05000007 
-0.150000006 1 1 
-0.150000006 1 1.05000007 
-0.200000003 1 1.10000002 
-0.150000006 1 1.10000002 
-0.100000001 0.800000012 1.10000002 
-0.100000001 0.850000024 1.10000002 
-0.0500000007 0.800000012 1.10000002 
-0.0500000007 0.850000024 1.10000002 
-0.100000001 0.900000036 1.10000002 
-0.100000001 0.949999988 1.10000002 
-0.0500000007 0.900000036 1.10000002 
-0.0500000007 0.949999988 1.10000002 
-0.100000001 1 1 
-0.100000001 1 1.05000007 
-0.0500000007 1 1 
-0.0500000007 1 1.05000007 
-0.100000001 1 1.10000002 
-0.0500000007 1 1.10000002 
0 -1.10000002 -1.10000002 
0 -1.10000002 -1.05000007 
0 -1.05000007 -1.10000002 
0.0500000007 -1.10000002 -1.10000002 
0.0500000007 -1.10000002 -1.05000007 
0.0500000007 -1.05000007 -1.10000002 
0 -1.10000002 -1 
0 -1.10000002 -0.949999988 
0.0500000007 -1.10000002 -1 
0.0500000007 -1.10000002 -0.949999988 
0 -1.10000002 -0.900000036 
0 -1.10000002 -0.850000024 
0.0500000007 -1.10000002 -0.900000036 
0.0500000007 -1.10000002 -0.850000024 
0 -1 -1.10000002 
0 -0.949999988 -1.10000002 
0.0500000007 -1 -1.10000002 
0.0500000007 -0.949999988 -1.10000002 
0 -0.900000036 -1.10000002 
0 -0.850000024 -1.10000002 
0.0500000007 -0.900000036 -1.10000002 
0.0500000007 -0.850000024 -1.10000002 
0.100000001 -1.10000002 -1.10000002 
0.100000001 -1.10000002 -1.05000007 
0.100000001 -1.05000007 -1.10000002 
0.150000006 -1.10000002 -1.10000002 
0.150000006 -1.10000002 -1.05000007 
0.150000006 -1.05000007 -1.10000002 
0.100000001 -1.10000002 -1 
0.100000001 -1.10000002 -0.949999988 
0.150000006 -1.10000002 -1 
0.150000006 -1.10000002 -0.949999988 
0.100000001 -1.10000002 -0.900000036 
0.100000001 -1.10000002 -0.850000024 
0.150000006 -1.10000002 -0.900000036 
0.150000006 -1.10000002 -0.850000024 
0.100000001 -1 -1.10000002 
0.100000001 -0.949999988 -1.10000002 
0.150000006 -1 -1.10000002 
0.150000006 -0.949999988 -1.10000002 
0.100000001 -0.900000036 -1.10000002 
0.100000001 -0.850000024 -1.10000002 
0.150000006 -0.900000036 -1.10000002 
0.150000006 -0.850000024 -1.10000002 
0.200000003 -1.10000002 -1.10000002 
0.200000003 -1.10000002 -1.05000007 
0.200000003 -1.05000007 -1.10000002 
0.25 -1.10000002 -1.10000002 
0.25 -1.10000002 -1.05000007 
0.25 -1.05000007 -1.10000002 
0.200000003 -1.10000002 -1 
0.200000003 -1.10000002 -0.949999988 
0.25 -1.10000002 -1 
0.25 -1.10000002 -0.949999988 
0.200000003 -1.10000002 -0.900000036 
0.200000003 -1.10000002 -0.850000024 
0.25 -1.10000002 -0.900000036 
0.25 -1.10000002 -0.850000024 
0.200000003 -1 -1.10000002 
0.200000003 -0.949999988 -1.10000002 
0.25 -1 -1.10000002 
0.25 -0.949999988 -1.10000002 
0.200000003 -0.900000036 -1.10000002 
0.200000003 -0.850000024 -1.10000002 
0.25 -0.900000036 -1.10000002 
0.25 -0.850000024 -1.10000002 
0.300000012 -1.10000002 -1.10000002 
0.300000012 -1.10000002 -1.05000007 
0.300000012 -1.05000007 -1.10000002 
0.349999994 -1.10000002 -1.10000002 
0.349999994 -1.10000002 -1.05000007 
0.349999994 -1.05000007 -1.10000002 
0.300000012 -1.10000002 -1 
0.300000012 -1.10000002 -0.949999988 
0.349999994 -1.10000002 -1 
0.349999994 -1.10000002 -0.949999988 
0.300000012 -1.10000002 -0.900000036 
0.300000012 -1.10000002 -0.850000024 
0.349999994 -1.10000002 -0.900000036 
0.349999994 -1.10000002 -0.850000024 
0.300000012 -1 -1.10000002 
0.300000012 -0.949999988 -1.10000002 
0.349999994 -1 -1.10000002 
0.349999994 -0.949999988 -1.10000002 
0.300000012 -0.900000036 -1.10000002 
0.300000012 -0.850000024 -1.10000002 
0.349999994 -0.900000036 -1.10000002 
0.349999994 -0.850000024 -1.10000002 
0.400000006 -1.10000002 -1.10000002 
0.400000006 -1.10000002 -1.05000007 
0.400000006 -1.05000007 -1.10000002 
0.450000018 -1.10000002 -1.10000002 
0.450000018 -1.10000002 -1.05000007 
0.450000018 -1.05000007 -1.10000002 
0.400000006 -1.10000002 -1 
0.400000006 -1.10000002 -0.949999988 
0.450000018 -1.10000002 -1 
0.450000018 -1.10000002 -0.949999988 
0.400000006 -1.10000002 -0.900000036 
0.400000006 -1.10000002 -0.850000024 
0.450000018 -1.10000002 -0.900000036 
0.450000018 -1.10000002 -0.850000024 
0.400000006 -1 -1.10000002 
0.400000006 -0.949999988 -1.10000002 
0.450000018 -1 -1.10000002 
0.450000018 -0.949999988 -1.10000002 
0.400000006 -0.900000036 -1.10000002 
0.400000006 -0.850000024 -1.10000002 
0.450000018 -0.900000036 -1.10000002 
0.450000018 -0.850000024 -1.10000002 
0.5 -1.10000002 -1.10000002 
0.5 -1.10000002 -1.05000007 
0.5 -1.05000007 -1.10000002 
0.550000012 -1.10000002 -1.10000002 
0.550000012 -1.10000002 -1.05000007 
0.550000012 -1.05000007 -1.10000002 
0.5 -1.10000002 -1 
0.5 -1.10000002 -0.949999988 
0.550000012 -1.10000002 -1 
0.550000012 -1.10000002 -0.949999988 
0.5 -1.10000002 -0.900000036 
0.5 -1.10000002 -0.850000024 
0.550000012 -1.10000002 -0.900000036 
0.550000012 -1.10000002 -0.850000024 
0.5 -1 -1.10000002 
0.5 -0.949999988 -1.10000002 
0.550000012 -1 -1.10000002 
0.550000012 -0.949999988 -1.10000002 
0.5 -0.900000036 -1.10000002 
0.5 -0.850000024 -1.10000002 
0.550000012 -0.900000036 -1.10000002 
0.550000012 -0.850000024 -1.10000002 
0.600000024 -1.10000002 -1.10000002 
0.600000024 -1.10000002 -1.05000007 
0.600000024 -1.05000007 -1.10000002 
0.650000036 -1.10000002 -1.10000002 
0.650000036 -1.10000002 -1.05000007 
0.650000036 -1.05000007 -1.10000002 
0.600000024 -1.10000002 -1 
0.600000024 -1.10000002 -0.949999988 
0.650000036 -1.10000002 -1 
0.650000036 -1.10000002 -0.949999988 
0.600000024 -1.10000002 -0.900000036 
0.600000024 -1.10000002 -0.850000024 
0.650000036 -1.10000002 -0.900000036 
0.650000036 -1.10000002 -0.850000024 
0.600000024 -1 -1.10000002 
0.600000024 -0.949999988 -1.10000002 
0.650000036 -1 -1.10000002 
0.650000036 -0.949999988 -1.10000002 
0.600000024 -0.900000036 -1.10000002 
0.600000024 -0.850000024 -1.10000002 
0.650000036 -0.900000036 -1.10000002 
0.650000036 -0.850000024 -1.10000002 
0.699999988 -1.10000002 -1.10000002 
0.699999988 -1.10000002 -1.05000007 
0.699999988 -1.05000007 -1.10000002 
0.75 -1.10000002 -1.10000002 
0.75 -1.10000002 -1.05000007 
0.75 -1.05000007 -1.10000002 
0.699999988 -1.10000002 -1 
0.699999988 -1.10000002 -0.949999988 
0.75 -1.10000002 -1 
0.75 -1.10000002 -0.949999988 
0.699999988 -1.10000002 -0.900000036 
0.699999988 -1.10000002 -0.850000024 
0.75 -1.10000002 -0.900000036 
0.75 -1.10000002 -0.850000024 
0.699999988 -1 -1.10000002 
0.699999988 -0.949999988 -1.10000002 
0.75 -1 -1.10000002 
0.75 -0.949999988 -1.10000002 
0.699999988 -0.900000036 -1.10000002 
0.699999988 -0.850000024 -1.10000002 
0.75 -0.900000036 -1.10000002 
0.75 -0.850000024 -1.10000002 
0 -1.10000002 -0.800000012 
0 -1.10000002 -0.75 
0.0500000007 -1.10000002 -0.800000012 
0.0500000007 -1.10000002 -0.75 
0 -1.10000002 -0.699999988 
0 -1.10000002 -0.650000036 
0.0500000007 -1.10000002 -0.699999988 
0.0500000007 -1.10000002 -0.650000036 
0 -1.10000002 -0.600000024 
0 -1.10000002 -0.550000012 
0.0500000007 -1.10000002 -0.600000024 
0.0500000007 -1.10000002 -0.550000012 
0 -1.10000002 -0.5 
0 -1.10000002 -0.450000018 
0.0500000007 -1.10000002 -0.5 
0.0500000007 -1.10000002 -0.450000018 
0 -1.10000002 -0.400000006 
0 -1.10000002 -0.349999994 
0.0500000007 -1.10000002 -0.400000006 
0.0500000007 -1.10000002 -0.349999994 
0 -1.10000002 -0.300000012 
0 -1.10000002 -0.25 
0.0500000007 -1.10000002 -0.300000012 
0.0500000007 -1.10000002 -0.25 
0 -1.10000002 -0.200000003 
0 -1.10000002 -0.150000006 
0.0500000007 -1.10000002 -0.200000003 
0.0500000007 -1.10000002 -0.150000006 
0 -1.10000002 -0.100000001 
0 -1.10000002 -0.0500000007 
0.0500000007 -1.10000002 -0.100000001 
0.0500000007 -1.10000002 -0.0500000007 
0.100000001 -1.10000002 -0.800000012 
0.100000001 -1.10000002 -0.75 
0.150000006 -1.10000002 -0.800000012 
0.150000006 -1.10000002 -0.75 
0.100000001 -1.10000002 -0.699999988 
0.100000001 -1.10000002 -0.650000036 
0.150000006 -1.10000002 -0.699999988 
0.150000006 -1.10000002 -0.650000036 
0.100000001 -1.10000002 -0.600000024 
0.100000001 -1.10000002 -0.550000012 
0.150000006 -1.10000002 -0.600000024 
0.150000006 -1.10000002 -0.550000012 
0.100000001 -1.10000002 -0.5 
0.100000001 -1.10000002 -0.450000018 
0.150000006 -1.10000002 -0.5 
0.150000006 -1.10000002 -0.450000018 
0.100000001 -1.10000002 -0.400000006 
0.100000001 -1.10000002 -0.349999994 
0.150000006 -1.10000002 -0.400000006 
0.150000006 -1.10000002 -0.349999994 
0.100000001 -1.10000002 -0.300000012 
0.100000001 -1.10000002 -0.25 
0.150000006 -1.10000002 -0.300000012 
0.150000006 -1.10000002 -0.25 
0.100000001 -1.10000002 -0.200000003 
0.100000001 -1.10000002 -0.150000006 
0.150000006 -1.10000002 -0.200000003 
0.150000006 -1.10000002 -0.150000006 
0.100000001 -1.10000002 -0.100000001 
0.100000001 -1.10000002 -0.0500000007 
0.150000006 -1.10000002 -0.100000001 
0.150000006 -1.10000002 -0.0500000007 
0.200000003 -1.10000002 -0.800000012 
0.200000003 -1.10000002 -0.75 
0.25 -1.10000002 -0.800000012 
0.25 -1.10000002 -0.75 
0.200000003 -1.10000002 -0.699999988 
0.200000003 -1.10000002 -0.650000036 
0.25 -1.10000002 -0.699999988 
0.25 -1.10000002 -0.650000036 
0.200000003 -1.10000002 -0.600000024 
0.200000003 -1.10000002 -0.550000012 
0.25 -1.10000002 -0.600000024 
0.25 -1.10000002 -0.550000012 
0.200000003 -1.10000002 -0.5 
0.200000003 -1.10000002 -0.450000018 
0.25 -1.10000002 -0.5 
0.25 -1.10000002 -0.450000018 
0.200000003 -1.10000002 -0.400000006 
0.200000003 -1.10000002 -0.349999994 
0.25 -1.10000002 -0.400000006 
0.25 -1.10000002 -0.349999994 
0.200000003 -1.10000002 -0.300000012 
0.200000003 -1.10000002 -0.25 
0.25 -1.10000002 -0.300000012 
0.25 -1.10000002 -0.25 
0.200000003 -1.10000002 -0.200000003 
0.200000003 -1.10000002 -0.150000006 
0.25 -1.10000002 -0.200000003 
0.25 -1.10000002 -0.150000006 
0.200000003 -1.10000002 -0.100000001 
0.200000003 -1.10000002 -0.0500000007 
0.25 -1.10000002 -0.100000001 
0.25 -1.10000002 -0.0500000007 
0.300000012 -1.10000002 -0.800000012 
0.300000012 -1.10000002 -0.75 
0.349999994 -1.10000002 -0.800000012 
0.349999994 -1.10000002 -0.75 
0.300000012 -1.10000002 -0.699999988 
0.300000012 -1.10000002 -0.650000036 
0.349999994 -1.10000002 -0.699999988 
0.349999994 -1.10000002 -0.650000036 
0.300000012 -1.10000002 -0.600000024 
0.300000012 -1.10000002 -0.550000012 
0.349999994 -1.10000002 -0.600000024 
0.349999994 -1.10000002 -0.550000012 
0.300000012 -1.10000002 -0.5 
0.300000012 -1.10000002 -0.450000018 
0.349999994 -1.10000002 -0.5 
0.349999994 -1.10000002 -0.450000018 
0.300000012 -1.10000002 -0.400000006 
0.300000012 -1.10000002 -0.349999994 
0.349999994 -1.10000002 -0.400000006 
0.349999994 -1.10000002 -0.349999994 
0.300000012 -1.10000002 -0.300000012 
0.300000012 -1.10000002 -0.25 
0.349999994 -1.10000002 -0.300000012 
0.349999994 -1.10000002 -0.25 
0.300000012 -1.10000002 -0.200000003 
0.300000012 -1.10000002 -0.150000006 
0.349999994 -1.10000002 -0.200000003 
0.349999994 -1.10000002 -0.150000006 
0.300000012 -1.10000002 -0.100000001 
0.300000012 -1.10000002 -0.0500000007 
0.349999994 -1.10000002 -0.100000001 
0.349999994 -1.10000002 -0.0500000007 
0.400000006 -1.10000002 -0.800000012 
0.400000006 -1.10000002 -0.75 
0.450000018 -1.10000002 -0.800000012 
0.450000018 -1.10000002 -0.75 
0.400000006 -1.10000002 -0.699999988 
0.400000006 -1.10000002 -0.650000036 
0.450000018 -1.10000002 -0.699999988 
0.450000018 -1.10000002 -0.650000036 
0.400000006 -1.10000002 -0.600000024 
0.400000006 -1.10000002 -0.550000012 
0.450000018 -1.10000002 -0.600000024 
0.450000018 -1.10000002 -0.550000012 
0.400000006 -1.10000002 -0.5 
0.400000006 -1.10000002 -0.450000018 
0.450000018 -1.10000002 -0.5 
0.450000018 -1.10000002 -0.450000018 
0.400000006 -1.10000002 -0.400000006 
0.400000006 -1.10000002 -0.349999994 
0.450000018 -1.10000002 -0.400000006 
0.450000018 -1.10000002 -0.349999994 
0.400000006 -1.10000002 -0.300000012 
0.400000006 -1.10000002 -0.25 
0.450000018 -1.10000002 -0.300000012 
0.450000018 -1.10000002 -0.25 
0.400000006 -1.10000002 -0.200000003 
0.400000006 -1.10000002 -0.150000006 
0.450000018 -1.10000002 -0.200000003 
0.450000018 -1.10000002 -0.150000006 
0.400000006 -1.10000002 -0.100000001 
0.400000006 -1.10000002 -0.0500000007 
0.450000018 -1.10000002 -0.100000001 
0.450000018 -1.10000002 -0.0500000007 
0.5 -1.10000002 -0.800000012 
0.5 -1.10000002 -0.75 
0.550000012 -1.10000002 -0.800000012 
0.550000012 -1.10000002 -0.75 
0.5 -1.10000002 -0.699999988 
0.5 -1.10000002 -0.650000036 
0.550000012 -1.10000002 -0.699999988 
0.550000012 -1.10000002 -0.650000036 
0.5 -1.10000002 -0.600000024 
0.5 -1.10000002 -0.550000012 
0.550000012 -1.10000002 -0.600000024 
0.550000012 -1.10000002 -0.550000012 
0.5 -1.10000002 -0.5 
0.5 -1.10000002 -0.450000018 
0.550000012 -1.10000002 -0.5 
0.550000012 -1.10000002 -0.450000018 
0.5 -1.10000002 -0.400000006 
0.5 -1.10000002 -0.349999994 
0.550000012 -1.10000002 -0.400000006 
0.550000012 -1.10000002 -0.349999994 
0.5 -1.10000002 -0.300000012 
0.5 -1.10000002 -0.25 
0.550000012 -1.10000002 -0.300000012 
0.550000012 -1.10000002 -0.25 
0.5 -1.10000002 -0.200000003 
0.5 -1.10000002 -0.150000006 
0.550000012 -1.10000002 -0.200000003 
0.550000012 -1.10000002 -0.150000006 
0.5 -1.10000002 -0.100000001 
0.5 -1.10000002 -0.0500000007 
0.550000012 -1.10000002 -0.100000001 
0.550000012 -1.10000002 -0.0500000007 
0.600000024 -1.10000002 -0.800000012 
0.600000024 -1.10000002 -0.75 
0.650000036 -1.10000002 -0.800000012 
0.650000036 -1.10000002 -0.75 
0.600000024 -1.10000002 -0.699999988 
0.600000024 -1.10000002 -0.650000036 
0.650000036 -1.10000002 -0.699999988 
0.650000036 -1.10000002 -0.650000036 
0.600000024 -1.10000002 -0.600000024 
0.600000024 -1.10000002 -0.550000012 
0.650000036 -1.10000002 -0.600000024 
0.650000036 -1.10000002 -0.550000012 
0.600000024 -1.10000002 -0.5 
0.600000024 -1.10000002 -0.450000018 
0.650000036 -1.10000002 -0.5 
0.650000036 -1.10000002 -0.450000018 
0.600000024 -1.10000002 -0.400000006 
0.600000024 -1.10000002 -0.349999994 
0.650000036 -1.10000002 -0.400000006 
0.650000036 -1.10000002 -0.349999994 
0.600000024 -1.10000002 -0.300000012 
0.600000024 -1.10000002 -0.25 
0.650000036 -1.10000002 -0.300000012 
0.650000036 -1.10000002 -0.25 
0.600000024 -1.10000002 -0.200000003 
0.600000024 -1.10000002 -0.150000006 
0.650000036 -1.10000002 -0.200000003 
0.650000036 -1.10000002 -0.150000006 
0.600000024 -1.10000002 -0.100000001 
0.600000024 -1.10000002 -0.0500000007 
0.650000036 -1.10000002 -0.100000001 
0.650000036 -1.10000002 -0.0500000007 
0.699999988 -1.10000002 -0.800000012 
0.699999988 -1.10000002 -0.75 
0.75 -1.10000002 -0.800000012 
0.75 -1.10000002 -0.75 
0.699999988 -1.10000002 -0.699999988 
0.699999988 -1.10000002 -0.650000036 
0.75 -1.10000002 -0.699999988 
0.75 -1.10000002 -0.650000036 
0.699999988 -1.10000002 -0.600000024 
0.699999988 -1.10000002 -0.550000012 
0.75 -1.10000002 -0.600000024 
0.75 -1.10000002 -0.550000012 
0.699999988 -1.10000002 -0.5 
0.699999988 -1.10000002 -0.450000018 
0.75 -1.10000002 -0.5 
0.75 -1.10000002 -0.450000018 
0.699999988 -1.10000002 -0.400000006 
0.699999988 -1.10000002 -0.349999994 
0.75 -1.10000002 -0.400000006 
0.75 -1.10000002 -0.349999994 
0.699999988 -1.10000002 -0.300000012 
0.699999988 -1.10000002 -0.25 
0.75 -1.10000002 -0.300000012 
0.75 -1.10000002 -0.25 
0.699999988 -1.10000002 -0.200000003 
0.699999988 -1.10000002 -0.150000006 
0.75 -1.10000002 -0.200000003 
0.75 -1.10000002 -0.150000006 
0.699999988 -1.10000002 -0.100000001 
0.699999988 -1.10000002 -0.0500000007 
0.75 -1.10000002 -0.100000001 
0.75 -1.10000002 -0.0500000007 
0 -0.800000012 -1.10000002 
0 -0.75 -1.10000002 
0.0500000007 -0.800000012 -1.10000002 
0.0500000007 -0.75 -1.10000002 
0 -0.699999988 -1.10000002 
0 -0.650000036 -1.10000002 
0.0500000007 -0.699999988 -1.10000002 
0.0500000007 -0.650000036 -1.10000002 
0 -0.600000024 -1.10000002 
0 -0.550000012 -1.10000002 
0.0500000007 -0.600000024 -1.10000002 
0.0500000007 -0.550000012 -1.10000002 
0 -0.5 -1.10000002 
0 -0.450000018 -1.10000002 
0.0500000007 -0.5 -1.10000002 
0.0500000007 -0.450000018 -1.10000002 
0 -0.400000006 -1.10000002 
0 -0.349999994 -1.10000002 
0.0500000007 -0.400000006 -1.10000002 
0.0500000007 -0.349999994 -1.10000002 
0 -0.300000012 -1.10000002 
0 -0.25 -1.10000002 
0.0500000007 -0.300000012 -1.10000002 
0.0500000007 -0.25 -1.10000002 
0 -0.200000003 -1.10000002 
0 -0.150000006 -1.10000002 
0.0500000007 -0.200000003 -1.10000002 
0.0500000007 -0.150000006 -1.10000002 
0 -0.100000001 -1.10000002 
0 -0.0500000007 -1.10000002 
0.0500000007 -0.100000001 -1.10000002 
0.0500000007 -0.0500000007 -1.10000002 
0.100000001 -0.800000012 -1.10000002 
0.100000001 -0.75 -1.10000002 
0.150000006 -0.800000012 -1.10000002 
0.150000006 -0.75 -1.10000002 
0.100000001 -0.699999988 -1.10000002 
0.100000001 -0.650000036 -1.10000002 
0.150000006 -0.699999988 -1.10000002 
0.150000006 -0.650000036 -1.10000002 
0.100000001 -0.600000024 -1.10000002 
0.100000001 -0.550000012 -1.10000002 
0.150000006 -0.600000024 -1.10000002 
0.150000006 -0.550000012 -1.10000002 
0.100000001 -0.5 -1.10000002 
0.100000001 -0.450000018 -1.10000002 
0.150000006 -0.5 -1.10000002 
0.150000006 -0.450000018 -1.10000002 
0.100000001 -0.400000006 -1.10000002 
0.100000001 -0.349999994 -1.10000002 
0.150000006 -0.400000006 -1.10000002 
0.150000006 -0.349999994 -1.10000002 
0.100000001 -0.300000012 -1.10000002 
0.100000001 -0.25 -1.10000002 
0.150000006 -0.300000012 -1.10000002 
0.150000006 -0.25 -1.10000002 
0.100000001 -0.200000003 -1.10000002 
0.100000001 -0.150000006 -1.10000002 
0.150000006 -0.200000003 -1.10000002 
0.150000006 -0.150000006 -1.10000002 
0.100000001 -0.100000001 -1.10000002 
0.100000001 -0.0500000007 -1.10000002 
0.150000006 -0.100000001 -1.10000002 
0.150000006 -0.0500000007 -1.10000002 
0.200000003 -0.800000012 -1.10000002 
0.200000003 -0.75 -1.10000002 
0.25 -0.800000012 -1.10000002 
0.25 -0.75 -1.10000002 
0.200000003 -0.699999988 -1.10000002 
0.200000003 -0.650000036 -1.10000002 
0.25 -0.699999988 -1.10000002 
0.25 -0.650000036 -1.10000002 
0.200000003 -0.600000024 -1.10000002 
0.200000003 -0.550000012 -1.10000002 
0.25 -0.600000024 -1.10000002 
0.25 -0.550000012 -1.10000002 
0.200000003 -0.5 -1.10000002 
0.200000003 -0.450000018 -1.10000002 
0.25 -0.5 -1.10000002 
0.25 -0.450000018 -1.10000002 
0.200000003 -0.400000006 -1.10000002 
0.200000003 -0.349999994 -1.10000002 
0.25 -0.400000006 -1.10000002 
0.25 -0.349999994 -1.10000002 
0.200000003 -0.300000012 -1.10000002 
0.200000003 -0.25 -1.10000002 
0.25 -0.300000012 -1.10000002 
0.25 -0.25 -1.10000002 
0.200000003 -0.200000003 -1.10000002 
0.200000003 -0.150000006 -1.10000002 
0.25 -0.200000003 -1.10000002 
0.25 -0.150000006 -1.10000002 
0.200000003 -0.100000001 -1.10000002 
0.200000003 -0.0500000007 -1.10000002 
0.25 -0.100000001 -1.10000002 
0.25 -0.0500000007 -1.10000002 
0.300000012 -0.800000012 -1.10000002 
0.300000012 -0.75 -1.10000002 
0.349999994 -0.800000012 -1.10000002 
0.349999994 -0.75 -1.10000002 
0.300000012 -0.699999988 -1.10000002 
0.300000012 -0.650000036 -1.10000002 
0.349999994 -0.699999988 -1.10000002 
0.349999994 -0.650000036 -1.10000002 
0.300000012 -0.600000024 -1.10000002 
0.300000012 -0.550000012 -1.10000002 
0.349999994 -0.600000024 -1.10000002 
0.349999994 -0.550000012 -1.10000002 
0.300000012 -0.5 -1.10000002 
0.300000012 -0.450000018 -1.10000002 
0.349999994 -0.5 -1.10000002 
0.349999994 -0.450000018 -1.10000002 
0.300000012 -0.400000006 -1.10000002 
0.300000012 -0.349999994 -1.10000002 
0.349999994 -0.400000006 -1.10000002 
0.349999994 -0.349999994 -1.10000002 
0.300000012 -0.300000012 -1.10000002 
0.300000012 -0.25 -1.10000002 
0.349999994 -0.300000012 -1.10000002 
0.349999994 -0.25 -1.10000002 
0.300000012 -0.200000003 -1.10000002 
0.300000012 -0.150000006 -1.10000002 
0.349999994 -0.200000003 -1.10000002 
0.349999994 -0.150000006 -1.10000002 
0.300000012 -0.100000001 -1.10000002 
0.300000012 -0.0500000007 -1.10000002 
0.349999994 -0.100000001 -1.10000002 
0.349999994 -0.0500000007 -1.10000002 
0.400000006 -0.800000012 -1.10000002 
0.400000006 -0.75 -1.10000002 
0.450000018 -0.800000012 -1.10000002 
0.450000018 -0.75 -1.10000002 
0.400000006 -0.699999988 -1.10000002 
0.400000006 -0.650000036 -1.10000002 
0.450000018 -0.699999988 -1.10000002 
0.450000018 -0.650000036 -1.10000002 
0.400000006 -0.600000024 -1.10000002 
0.400000006 -0.550000012 -1.10000002 
0.450000018 -0.600000024 -1.10000002 
0.450000018 -0.550000012 -1.10000002 
0.400000006 -0.5 -1.10000002 
0.400000006 -0.450000018 -1.10000002 
0.450000018 -0.5 -1.10000002 
0.450000018 -0.450000018 -1.10000002 
0.400000006 -0.400000006 -1.10000002 
0.400000006 -0.349999994 -1.10000002 
0.450000018 -0.400000006 -1.10000002 
0.450000018 -0.349999994 -1.10000002 
0.400000006 -0.300000012 -1.10000002 
0.400000006 -0.25 -1.10000002 
0.450000018 -0.300000012 -1.10000002 
0.450000018 -0.25 -1.10000002 
0.400000006 -0.200000003 -1.10000002 
0.400000006 -0.150000006 -1.10000002 
0.450000018 -0.200000003 -1.10000002 
0.450000018 -0.150000006 -1.10000002 
0.400000006 -0.100000001 -1.10000002 
0.400000006 -0.0500000007 -1.10000002 
0.450000018 -0.100000001 -1.10000002 
0.450000018 -0.0500000007 -1.10000002 
0.5 -0.800000012 -1.10000002 
0.5 -0.75 -1.10000002 
0.550000012 -0.800000012 -1.10000002 
0.550000012 -0.75 -1.10000002 
0.5 -0.699999988 -1.10000002 
0.5 -0.650000036 -1.10000002 
0.550000012 -0.699999988 -1.10000002 
0.550000012 -0.650000036 -1.10000002 
0.5 -0.600000024 -1.10000002 
0.5 -0.550000012 -1.10000002 
0.550000012 -0.600000024 -1.10000002 
0.550000012 -0.550000012 -1.10000002 
0.5 -0.5 -1.10000002 
0.5 -0.450000018 -1.10000002 
0.550000012 -0.5 -1.10000002 
0.550000012 -0.450000018 -1.10000002 
0.5 -0.400000006 -1.10000002 
0.5 -0.349999994 -1.10000002 
0.550000012 -0.400000006 -1.10000002 
0.550000012 -0.349999994 -1.10000002 
0.5 -0.300000012 -1.10000002 
0.5 -0.25 -1.10000002 
0.550000012 -0.300000012 -1.10000002 
0.550000012 -0.25 -1.10000002 
0.5 -0.200000003 -1.10000002 
0.5 -0.150000006 -1.10000002 
0.550000012 -0.200000003 -1.10000002 
0.550000012 -0.150000006 -1.10000002 
0.5 -0.100000001 -1.10000002 
0.5 -0.0500000007 -1.10000002 
0.550000012 -0.100000001 -1.10000002 
0.550000012 -0.0500000007 -1.10000002 
0.600000024 -0.800000012 -1.10000002 
0.600000024 -0.75 -1.10000002 
0.650000036 -0.800000012 -1.10000002 
0.650000036 -0.75 -1.10000002 
0.600000024 -0.699999988 -1.10000002 
0.600000024 -0.650000036 -1.10000002 
0.650000036 -0.699999988 -1.10000002 
0.650000036 -0.650000036 -1.10000002 
0.600000024 -0.600000024 -1.10000002 
0.600000024 -0.550000012 -1.10000002 
0.650000036 -0.600000024 -1.10000002 
0.650000036 -0.550000012 -1.10000002 
0.600000024 -0.5 -1.10000002 
0.600000024 -0.450000018 -1.10000002 
0.650000036 -0.5 -1.10000002 
0.650000036 -0.450000018 -1.10000002 
0.600000024 -0.400000006 -1.10000002 
0.600000024 -0.349999994 -1.10000002 
0.650000036 -0.400000006 -1.10000002 
0.650000036 -0.349999994 -1.10000002 
0.600000024 -0.300000012 -1.10000002 
0.600000024 -0.25 -1.10000002 
0.650000036 -0.300000012 -1.10000002 
0.650000036 -0.25 -1.10000002 
0.600000024 -0.200000003 -1.10000002 
0.600000024 -0.150000006 -1.10000002 
0.650000036 -0.200000003 -1.10000002 
0.650000036 -0.150000006 -1.10000002 
0.600000024 -0.100000001 -1.10000002 
0.600000024 -0.0500000007 -1.10000002 
0.650000036 -0.100000001 -1.10000002 
0.650000036 -0.0500000007 -1.10000002 
0.699999988 -0.800000012 -1.10000002 
0.699999988 -0.75 -1.10000002 
0.75 -0.800000012 -1.10000002 
0.75 -0.75 -1.10000002 
0.699999988 -0.699999988 -1.10000002 
0.699999988 -0.650000036 -1.10000002 
0.75 -0.699999988 -1.10000002 
0.75 -0.650000036 -1.10000002 
0.699999988 -0.600000024 -1.10000002 
0.699999988 -0.550000012 -1.10000002 
0.75 -0.600000024 -1.10000002 
0.75 -0.550000012 -1.10000002 
0.699999988 -0.5 -1.10000002 
0.699999988 -0.450000018 -1.10000002 
0.75 -0.5 -1.10000002 
0.75 -0.450000018 -1.10000002 
0.699999988 -0.400000006 -1.10000002 
0.699999988 -0.349999994 -1.10000002 
0.75 -0.400000006 -1.10000002 
0.75 -0.349999994 -1.10000002 
0.699999988 -0.300000012 -1.10000002 
0.699999988 -0.25 -1.10000002 
0.75 -0.300000012 -1.10000002 
0.75 -0.25 -1.10000002 
0.699999988 -0.200000003 -1.10000002 
0.699999988 -0.150000006 -1.10000002 
0.75 -0.200000003 -1.10000002 
0.75 -0.150000006 -1.10000002 
0.699999988 -0.100000001 -1.10000002 
0.699999988 -0.0500000007 -1.10000002 
0.75 -0.100000001 -1.10000002 
0.75 -0.0500000007 -1.10000002 
0.800000012 -1.10000002 -1.10000002 
0.800000012 -1.10000002 -1.05000007 
0.800000012 -1.05000007 -1.10000002 
0.850000024 -1.10000002 -1.10000002 
0.850000024 -1.10000002 -1.05000007 
0.850000024 -1.05000007 -1.10000002 
0.800000012 -1.10000002 -1 
0.800000012 -1.10000002 -0.949999988 
0.850000024 -1.10000002 -1 
0.850000024 -1.10000002 -0.949999988 
0.800000012 -1.10000002 -0.900000036 
0.800000012 -1.10000002 -0.850000024 
0.850000024 -1.10000002 -0.900000036 
0.850000024 -1.10000002 -0.850000024 
0.800000012 -1 -1.10000002 
0.800000012 -0.949999988 -1.10000002 
0.850000024 -1 -1.10000002 
0.850000024 -0.949999988 -1.10000002 
0.800000012 -0.900000036 -1.10000002 
0.800000012 -0.850000024 -1.10000002 
0.850000024 -0.900000036 -1.10000002 
0.850000024 -0.850000024 -1.10000002 
0.900000036 -1.10000002 -1.10000002 
0.900000036 -1.10000002 -1.05000007 
0.900000036 -1.05000007 -1.10000002 
0.949999988 -1.10000002 -1.10000002 
0.949999988 -1.10000002 -1.05000007 
0.949999988 -1.05000007 -1.10000002 
0.900000036 -1.10000002 -1 
0.900000036 -1.10000002 -0.949999988 
0.949999988 -1.10000002 -1 
0.949999988 -1.10000002 -0.949999988 
0.900000036 -1.10000002 -0.900000036 
0.900000036 -1.10000002 -0.850000024 
0.949999988 -1.10000002 -0.900000036 
0.949999988 -1.10000002 -0.850000024 
0.900000036 -1 -1.10000002 
0.900000036 -0.949999988 -1.10000002 
0.949999988 -1 -1.10000002 
0.949999988 -0.949999988 -1.10000002 
0.900000036 -0.900000036 -1.10000002 
0.900000036 -0.850000024 -1.10000002 
0.949999988 -0.900000036 -1.10000002 
0.949999988 -0.850000024 -1.10000002 
1 -1.10000002 -1.10000002 
1 -1.10000002 -1.05000007 
1 -1.05000007 -1.10000002 
1.05000007 -1.10000002 -1.10000002 
1.05000007 -1.10000002 -1.05000007 
1.05000007 -1.05000007 -1.10000002 
1 -1.10000002 -1 
1 -1.10000002 -0.949999988 
1.05000007 -1.10000002 -1 
1.05000007 -1.10000002 -0.949999988 
1 -1.10000002 -0.900000036 
1 -1.10000002 -0.850000024 
1.05000007 -1.10000002 -0.900000036 
1.05000007 -1.10000002 -0.850000024 
1 -1 -1.10000002 
1 -0.949999988 -1.10000002 
1.05000007 -1 -1.10000002 
1.05000007 -0.949999988 -1.10000002 
1 -0.900000036 -1.10000002 
1 -0.850000024 -1.10000002 
1.05000007 -0.900000036 -1.10000002 
1.05000007 -0.850000024 -1.10000002 
1.10000002 -1.10000002 -1.10000002 
1.10000002 -1.10000002 -1.05000007 
1.10000002 -1.05000007 -1.10000002 
1.10000002 -1.05000007 -1.05000007 
1.10000002 -1.10000002 -1 
1.10000002 -1.10000002 -0.949999988 
1.10000002 -1.05000007 -1 
1.10000002 -1.05000007 -0.949999988 
1.10000002 -1.10000002 -0.900000036 
1.10000002 -1.10000002 -0.850000024 
1.10000002 -1.05000007 -0.900000036 
1.10000002 -1.05000007 -0.850000024 
1.10000002 -1 -1.10000002 
1.10000002 -1 -1.05000007 
1.10000002 -0.949999988 -1.10000002 
1.10000002 -0.949999988 -1.05000007 
1.10000002 -1 -1 
1.10000002 -1 -0.949999988 
1.10000002 -0.949999988 -1 
1.10000002 -0.949999988 -0.949999988 
1.10000002 -1 -0.900000036 
1.10000002 -1 -0.850000024 
1.10000002 -0.949999988 -0.900000036 
1.10000002 -0.949999988 -0.850000024 
1.10000002 -0.900000036 -1.10000002 
1.10000002 -0.900000036 -1.05000007 
1.10000002 -0.850000024 -1.10000002 
1.10000002 -0.850000024 -1.05000007 
1.10000002 -0.900000036 -1 
1.10000002 -0.900000036 -0.949999988 
1.10000002 -0.850000024 -1 
1.10000002 -0.850000024 -0.949999988 
1.10000002 -0.900000036 -0.900000036 
1.10000002 -0.900000036 -0.850000024 
1.10000002 -0.850000024 -0.900000036 
1.10000002 -0.850000024 -0.850000024 
0.800000012 -1.10000002 -0.800000012 
0.800000012 -1.10000002 -0.75 
0.850000024 -1.10000002 -0.800000012 
0.850000024 -1.10000002 -0.75 
0.800000012 -1.10000002 -0.699999988 
0.800000012 -1.10000002 -0.650000036 
