ply
format ascii 1.0
comment created by gply, a Houdini tool.
comment converted from .[b]geo
comment for more information about Houdini, try:
comment www.sidefx.com
element vertex 1358
property float x
property float y
property float z
element face 0
property list uchar int vertex_indices
end_header
-0.159999996 2.96000004 -0.879999995 
-0.0799999982 2.87999988 -0.959999979 
-0.0799999982 2.87999988 -0.879999995 
-0.0799999982 2.96000004 -0.959999979 
-0.0799999982 2.96000004 -0.879999995 
-0.159999996 2.87999988 -0.799999952 
-0.159999996 2.87999988 -0.719999969 
-0.159999996 2.96000004 -0.799999952 
-0.159999996 2.96000004 -0.719999969 
-0.0799999982 2.87999988 -0.799999952 
-0.0799999982 2.87999988 -0.719999969 
-0.0799999982 2.96000004 -0.799999952 
-0.0799999982 2.96000004 -0.719999969 
-0.159999996 2.87999988 -0.639999986 
-0.159999996 2.87999988 -0.560000002 
-0.159999996 2.96000004 -0.639999986 
-0.159999996 2.96000004 -0.560000002 
-0.0799999982 2.87999988 -0.639999986 
-0.0799999982 2.87999988 -0.560000002 
-0.0799999982 2.96000004 -0.639999986 
-0.0799999982 2.96000004 -0.560000002 
-0.159999996 2.87999988 -0.479999989 
-0.159999996 2.87999988 -0.399999976 
-0.159999996 2.96000004 -0.479999989 
-0.159999996 2.96000004 -0.399999976 
-0.0799999982 2.87999988 -0.479999989 
-0.0799999982 2.87999988 -0.399999976 
-0.0799999982 2.96000004 -0.479999989 
-0.0799999982 2.96000004 -0.399999976 
-0.159999996 2.87999988 -0.319999993 
-0.159999996 2.87999988 -0.239999995 
-0.159999996 2.96000004 -0.319999993 
-0.159999996 2.96000004 -0.239999995 
-0.0799999982 2.87999988 -0.319999993 
-0.0799999982 2.87999988 -0.239999995 
-0.0799999982 2.96000004 -0.319999993 
-0.0799999982 2.96000004 -0.239999995 
-0.159999996 2.87999988 -0.159999996 
-0.159999996 2.87999988 -0.0799999982 
-0.159999996 2.96000004 -0.159999996 
-0.159999996 2.96000004 -0.0799999982 
-0.0799999982 2.87999988 -0.159999996 
-0.0799999982 2.87999988 -0.0799999982 
-0.0799999982 2.96000004 -0.159999996 
-0.0799999982 2.96000004 -0.0799999982 
-0.159999996 3.03999996 -1.27999997 
-0.159999996 3.03999996 -1.19999993 
-0.159999996 3.11999989 -1.27999997 
-0.159999996 3.11999989 -1.19999993 
-0.0799999982 3.03999996 -1.27999997 
-0.0799999982 3.03999996 -1.19999993 
-0.0799999982 3.11999989 -1.27999997 
-0.0799999982 3.11999989 -1.19999993 
-0.159999996 3.03999996 -1.12 
-0.159999996 3.03999996 -1.03999996 
-0.159999996 3.11999989 -1.12 
-0.159999996 3.11999989 -1.03999996 
-0.0799999982 3.03999996 -1.12 
-0.0799999982 3.03999996 -1.03999996 
-0.0799999982 3.11999989 -1.12 
-0.0799999982 3.11999989 -1.03999996 
-0.159999996 3.03999996 -0.959999979 
-0.159999996 3.03999996 -0.879999995 
-0.159999996 3.11999989 -0.959999979 
-0.159999996 3.11999989 -0.879999995 
-0.0799999982 3.03999996 -0.959999979 
-0.0799999982 3.03999996 -0.879999995 
-0.0799999982 3.11999989 -0.959999979 
-0.0799999982 3.11999989 -0.879999995 
-0.159999996 3.03999996 -0.799999952 
-0.159999996 3.03999996 -0.719999969 
-0.159999996 3.11999989 -0.799999952 
-0.159999996 3.11999989 -0.719999969 
-0.0799999982 3.03999996 -0.799999952 
-0.0799999982 3.03999996 -0.719999969 
-0.0799999982 3.11999989 -0.799999952 
-0.0799999982 3.11999989 -0.719999969 
-0.159999996 3.03999996 -0.639999986 
-0.159999996 3.03999996 -0.560000002 
-0.159999996 3.11999989 -0.639999986 
-0.159999996 3.11999989 -0.560000002 
-0.0799999982 3.03999996 -0.639999986 
-0.0799999982 3.03999996 -0.560000002 
-0.0799999982 3.11999989 -0.639999986 
-0.0799999982 3.11999989 -0.560000002 
-0.159999996 3.03999996 -0.479999989 
-0.159999996 3.03999996 -0.399999976 
-0.159999996 3.11999989 -0.479999989 
-0.159999996 3.11999989 -0.399999976 
-0.0799999982 3.03999996 -0.479999989 
-0.0799999982 3.03999996 -0.399999976 
-0.0799999982 3.11999989 -0.479999989 
-0.0799999982 3.11999989 -0.399999976 
-0.159999996 3.03999996 -0.319999993 
-0.159999996 3.03999996 -0.239999995 
-0.159999996 3.11999989 -0.319999993 
-0.159999996 3.11999989 -0.239999995 
-0.0799999982 3.03999996 -0.319999993 
-0.0799999982 3.03999996 -0.239999995 
-0.0799999982 3.11999989 -0.319999993 
-0.0799999982 3.11999989 -0.239999995 
-0.159999996 3.03999996 -0.159999996 
-0.159999996 3.03999996 -0.0799999982 
-0.159999996 3.11999989 -0.159999996 
-0.159999996 3.11999989 -0.0799999982 
-0.0799999982 3.03999996 -0.159999996 
-0.0799999982 3.03999996 -0.0799999982 
-0.0799999982 3.11999989 -0.159999996 
-0.0799999982 3.11999989 -0.0799999982 
-0.159999996 3.19999981 -1.27999997 
-0.159999996 3.19999981 -1.19999993 
-0.159999996 3.27999997 -1.27999997 
-0.159999996 3.27999997 -1.19999993 
-0.0799999982 3.19999981 -1.27999997 
-0.0799999982 3.19999981 -1.19999993 
-0.0799999982 3.27999997 -1.27999997 
-0.0799999982 3.27999997 -1.19999993 
-0.159999996 3.19999981 -1.12 
-0.159999996 3.19999981 -1.03999996 
-0.159999996 3.27999997 -1.12 
-0.159999996 3.27999997 -1.03999996 
-0.0799999982 3.19999981 -1.12 
-0.0799999982 3.19999981 -1.03999996 
-0.0799999982 3.27999997 -1.12 
-0.0799999982 3.27999997 -1.03999996 
-0.159999996 3.19999981 -0.959999979 
-0.159999996 3.19999981 -0.879999995 
-0.159999996 3.27999997 -0.959999979 
-0.159999996 3.27999997 -0.879999995 
-0.0799999982 3.19999981 -0.959999979 
-0.0799999982 3.19999981 -0.879999995 
-0.0799999982 3.27999997 -0.959999979 
-0.0799999982 3.27999997 -0.879999995 
-0.159999996 3.19999981 -0.799999952 
-0.159999996 3.19999981 -0.719999969 
-0.159999996 3.27999997 -0.799999952 
-0.159999996 3.27999997 -0.719999969 
-0.0799999982 3.19999981 -0.799999952 
-0.0799999982 3.19999981 -0.719999969 
-0.0799999982 3.27999997 -0.799999952 
-0.0799999982 3.27999997 -0.719999969 
-0.159999996 3.19999981 -0.639999986 
-0.159999996 3.19999981 -0.560000002 
-0.159999996 3.27999997 -0.639999986 
-0.159999996 3.27999997 -0.560000002 
-0.0799999982 3.19999981 -0.639999986 
-0.0799999982 3.19999981 -0.560000002 
-0.0799999982 3.27999997 -0.639999986 
-0.0799999982 3.27999997 -0.560000002 
-0.159999996 3.19999981 -0.479999989 
-0.159999996 3.19999981 -0.399999976 
-0.159999996 3.27999997 -0.479999989 
-0.159999996 3.27999997 -0.399999976 
-0.0799999982 3.19999981 -0.479999989 
-0.0799999982 3.19999981 -0.399999976 
-0.0799999982 3.27999997 -0.479999989 
-0.0799999982 3.27999997 -0.399999976 
-0.159999996 3.19999981 -0.319999993 
-0.159999996 3.19999981 -0.239999995 
-0.159999996 3.27999997 -0.319999993 
-0.159999996 3.27999997 -0.239999995 
-0.0799999982 3.19999981 -0.319999993 
-0.0799999982 3.19999981 -0.239999995 
-0.0799999982 3.27999997 -0.319999993 
-0.0799999982 3.27999997 -0.239999995 
-0.159999996 3.19999981 -0.159999996 
-0.159999996 3.19999981 -0.0799999982 
-0.159999996 3.27999997 -0.159999996 
-0.159999996 3.27999997 -0.0799999982 
-0.0799999982 3.19999981 -0.159999996 
-0.0799999982 3.19999981 -0.0799999982 
-0.0799999982 3.27999997 -0.159999996 
-0.0799999982 3.27999997 -0.0799999982 
-0.159999996 3.3599999 -1.27999997 
-0.159999996 3.3599999 -1.19999993 
-0.159999996 3.43999982 -1.27999997 
-0.159999996 3.43999982 -1.19999993 
-0.0799999982 3.3599999 -1.27999997 
-0.0799999982 3.3599999 -1.19999993 
-0.0799999982 3.43999982 -1.27999997 
-0.0799999982 3.43999982 -1.19999993 
-0.159999996 3.3599999 -1.12 
-0.159999996 3.3599999 -1.03999996 
-0.159999996 3.43999982 -1.12 
-0.159999996 3.43999982 -1.03999996 
-0.0799999982 3.3599999 -1.12 
-0.0799999982 3.3599999 -1.03999996 
-0.0799999982 3.43999982 -1.12 
-0.0799999982 3.43999982 -1.03999996 
-0.159999996 3.3599999 -0.959999979 
-0.159999996 3.3599999 -0.879999995 
-0.159999996 3.43999982 -0.959999979 
-0.159999996 3.43999982 -0.879999995 
-0.0799999982 3.3599999 -0.959999979 
-0.0799999982 3.3599999 -0.879999995 
-0.0799999982 3.43999982 -0.959999979 
-0.0799999982 3.43999982 -0.879999995 
-0.159999996 3.3599999 -0.799999952 
-0.159999996 3.3599999 -0.719999969 
-0.159999996 3.43999982 -0.799999952 
-0.159999996 3.43999982 -0.719999969 
-0.0799999982 3.3599999 -0.799999952 
-0.0799999982 3.3599999 -0.719999969 
-0.0799999982 3.43999982 -0.799999952 
-0.0799999982 3.43999982 -0.719999969 
-0.159999996 3.3599999 -0.639999986 
-0.159999996 3.3599999 -0.560000002 
-0.159999996 3.43999982 -0.639999986 
-0.159999996 3.43999982 -0.560000002 
-0.0799999982 3.3599999 -0.639999986 
-0.0799999982 3.3599999 -0.560000002 
-0.0799999982 3.43999982 -0.639999986 
-0.0799999982 3.43999982 -0.560000002 
-0.159999996 3.3599999 -0.479999989 
-0.159999996 3.3599999 -0.399999976 
-0.159999996 3.43999982 -0.479999989 
-0.159999996 3.43999982 -0.399999976 
-0.0799999982 3.3599999 -0.479999989 
-0.0799999982 3.3599999 -0.399999976 
-0.0799999982 3.43999982 -0.479999989 
-0.0799999982 3.43999982 -0.399999976 
-0.159999996 3.3599999 -0.319999993 
-0.159999996 3.3599999 -0.239999995 
-0.159999996 3.43999982 -0.319999993 
-0.159999996 3.43999982 -0.239999995 
-0.0799999982 3.3599999 -0.319999993 
-0.0799999982 3.3599999 -0.239999995 
-0.0799999982 3.43999982 -0.319999993 
-0.0799999982 3.43999982 -0.239999995 
-0.159999996 3.3599999 -0.159999996 
-0.159999996 3.3599999 -0.0799999982 
-0.159999996 3.43999982 -0.159999996 
-0.159999996 3.43999982 -0.0799999982 
-0.0799999982 3.3599999 -0.159999996 
-0.0799999982 3.3599999 -0.0799999982 
-0.0799999982 3.43999982 -0.159999996 
-0.0799999982 3.43999982 -0.0799999982 
-0.159999996 3.51999998 -1.27999997 
-0.159999996 3.51999998 -1.19999993 
-0.159999996 3.5999999 -1.27999997 
-0.159999996 3.5999999 -1.19999993 
-0.0799999982 3.51999998 -1.27999997 
-0.0799999982 3.51999998 -1.19999993 
-0.0799999982 3.5999999 -1.27999997 
-0.0799999982 3.5999999 -1.19999993 
-0.159999996 3.51999998 -1.12 
-0.159999996 3.51999998 -1.03999996 
-0.159999996 3.5999999 -1.12 
-0.159999996 3.5999999 -1.03999996 
-0.0799999982 3.51999998 -1.12 
-0.0799999982 3.51999998 -1.03999996 
-0.0799999982 3.5999999 -1.12 
-0.0799999982 3.5999999 -1.03999996 
-0.159999996 3.51999998 -0.959999979 
-0.159999996 3.51999998 -0.879999995 
-0.159999996 3.5999999 -0.959999979 
-0.159999996 3.5999999 -0.879999995 
-0.0799999982 3.51999998 -0.959999979 
-0.0799999982 3.51999998 -0.879999995 
-0.0799999982 3.5999999 -0.959999979 
-0.0799999982 3.5999999 -0.879999995 
-0.159999996 3.51999998 -0.799999952 
-0.159999996 3.51999998 -0.719999969 
-0.159999996 3.5999999 -0.799999952 
-0.159999996 3.5999999 -0.719999969 
-0.0799999982 3.51999998 -0.799999952 
-0.0799999982 3.51999998 -0.719999969 
-0.0799999982 3.5999999 -0.799999952 
-0.0799999982 3.5999999 -0.719999969 
-0.159999996 3.51999998 -0.639999986 
-0.159999996 3.51999998 -0.560000002 
-0.159999996 3.5999999 -0.639999986 
-0.159999996 3.5999999 -0.560000002 
-0.0799999982 3.51999998 -0.639999986 
-0.0799999982 3.51999998 -0.560000002 
-0.0799999982 3.5999999 -0.639999986 
-0.0799999982 3.5999999 -0.560000002 
-0.159999996 3.51999998 -0.479999989 
-0.159999996 3.51999998 -0.399999976 
-0.159999996 3.5999999 -0.479999989 
-0.159999996 3.5999999 -0.399999976 
-0.0799999982 3.51999998 -0.479999989 
-0.0799999982 3.51999998 -0.399999976 
-0.0799999982 3.5999999 -0.479999989 
-0.0799999982 3.5999999 -0.399999976 
-0.159999996 3.51999998 -0.319999993 
-0.159999996 3.51999998 -0.239999995 
-0.159999996 3.5999999 -0.319999993 
-0.159999996 3.5999999 -0.239999995 
-0.0799999982 3.51999998 -0.319999993 
-0.0799999982 3.51999998 -0.239999995 
-0.0799999982 3.5999999 -0.319999993 
-0.0799999982 3.5999999 -0.239999995 
-0.159999996 3.51999998 -0.159999996 
-0.159999996 3.51999998 -0.0799999982 
-0.159999996 3.5999999 -0.159999996 
-0.159999996 3.5999999 -0.0799999982 
-0.0799999982 3.51999998 -0.159999996 
-0.0799999982 3.51999998 -0.0799999982 
-0.0799999982 3.5999999 -0.159999996 
-0.0799999982 3.5999999 -0.0799999982 
-0.159999996 3.67999983 -1.27999997 
-0.159999996 3.67999983 -1.19999993 
-0.0799999982 3.67999983 -1.27999997 
-0.0799999982 3.67999983 -1.19999993 
-0.159999996 3.67999983 -1.12 
-0.159999996 3.67999983 -1.03999996 
-0.0799999982 3.67999983 -1.12 
-0.0799999982 3.67999983 -1.03999996 
-0.159999996 3.67999983 -0.959999979 
-0.159999996 3.67999983 -0.879999995 
-0.0799999982 3.67999983 -0.959999979 
-0.0799999982 3.67999983 -0.879999995 
-0.159999996 3.67999983 -0.799999952 
-0.159999996 3.67999983 -0.719999969 
-0.0799999982 3.67999983 -0.799999952 
-0.0799999982 3.67999983 -0.719999969 
-0.159999996 3.67999983 -0.639999986 
-0.159999996 3.67999983 -0.560000002 
-0.0799999982 3.67999983 -0.639999986 
-0.0799999982 3.67999983 -0.560000002 
-0.159999996 3.67999983 -0.479999989 
-0.159999996 3.67999983 -0.399999976 
-0.0799999982 3.67999983 -0.479999989 
-0.0799999982 3.67999983 -0.399999976 
-0.159999996 3.67999983 -0.319999993 
-0.159999996 3.67999983 -0.239999995 
-0.0799999982 3.67999983 -0.319999993 
-0.0799999982 3.67999983 -0.239999995 
-0.159999996 3.67999983 -0.159999996 
-0.159999996 3.67999983 -0.0799999982 
-0.0799999982 3.67999983 -0.159999996 
-0.0799999982 3.67999983 -0.0799999982 
-2.48000002 2.31999993 0 
-2.48000002 2.31999993 0.0799999982 
-2.48000002 2.31999993 0.159999996 
-2.48000002 2.31999993 0.239999995 
-2.48000002 2.39999986 0 
-2.48000002 2.39999986 0.0799999982 
-2.48000002 2.48000002 0 
-2.48000002 2.48000002 0.0799999982 
-2.48000002 2.39999986 0.159999996 
-2.48000002 2.39999986 0.239999995 
-2.48000002 2.48000002 0.159999996 
-2.48000002 2.48000002 0.239999995 
-2.39999986 2.31999993 0 
-2.39999986 2.31999993 0.0799999982 
-2.31999993 2.31999993 0 
-2.31999993 2.31999993 0.0799999982 
-2.39999986 2.31999993 0.159999996 
-2.39999986 2.31999993 0.239999995 
-2.31999993 2.31999993 0.159999996 
-2.31999993 2.31999993 0.239999995 
-2.39999986 2.31999993 0.319999993 
-2.39999986 2.31999993 0.399999976 
-2.31999993 2.31999993 0.319999993 
-2.31999993 2.31999993 0.399999976 
-2.39999986 2.31999993 0.479999989 
-2.39999986 2.31999993 0.560000002 
-2.31999993 2.31999993 0.479999989 
-2.31999993 2.31999993 0.560000002 
-2.39999986 2.31999993 0.639999986 
-2.31999993 2.31999993 0.639999986 
-2.31999993 2.31999993 0.719999969 
-2.31999993 2.31999993 0.799999952 
-2.31999993 2.31999993 0.879999995 
-2.39999986 2.39999986 0 
-2.39999986 2.39999986 0.0799999982 
-2.39999986 2.48000002 0 
-2.39999986 2.48000002 0.0799999982 
-2.31999993 2.39999986 0 
-2.31999993 2.39999986 0.0799999982 
-2.31999993 2.48000002 0 
-2.31999993 2.48000002 0.0799999982 
-2.39999986 2.39999986 0.159999996 
-2.39999986 2.39999986 0.239999995 
-2.39999986 2.48000002 0.159999996 
-2.39999986 2.48000002 0.239999995 
-2.31999993 2.39999986 0.159999996 
-2.31999993 2.39999986 0.239999995 
-2.31999993 2.48000002 0.159999996 
-2.31999993 2.48000002 0.239999995 
-2.39999986 2.39999986 0.319999993 
-2.39999986 2.39999986 0.399999976 
-2.39999986 2.48000002 0.319999993 
-2.39999986 2.48000002 0.399999976 
-2.31999993 2.39999986 0.319999993 
-2.31999993 2.39999986 0.399999976 
-2.31999993 2.48000002 0.319999993 
-2.31999993 2.48000002 0.399999976 
-2.39999986 2.39999986 0.479999989 
-2.39999986 2.39999986 0.560000002 
-2.39999986 2.48000002 0.479999989 
-2.39999986 2.48000002 0.560000002 
-2.31999993 2.39999986 0.479999989 
-2.31999993 2.39999986 0.560000002 
-2.31999993 2.48000002 0.479999989 
-2.31999993 2.48000002 0.560000002 
-2.39999986 2.39999986 0.639999986 
-2.39999986 2.48000002 0.639999986 
-2.31999993 2.39999986 0.639999986 
-2.31999993 2.39999986 0.719999969 
-2.31999993 2.48000002 0.639999986 
-2.31999993 2.48000002 0.719999969 
-2.31999993 2.39999986 0.799999952 
-2.31999993 2.39999986 0.879999995 
-2.31999993 2.48000002 0.799999952 
-2.31999993 2.48000002 0.879999995 
-2.24000001 2.31999993 0 
-2.24000001 2.31999993 0.0799999982 
-2.15999985 2.31999993 0 
-2.15999985 2.31999993 0.0799999982 
-2.24000001 2.31999993 0.159999996 
-2.24000001 2.31999993 0.239999995 
-2.15999985 2.31999993 0.159999996 
-2.15999985 2.31999993 0.239999995 
-2.24000001 2.31999993 0.319999993 
-2.24000001 2.31999993 0.399999976 
-2.15999985 2.31999993 0.319999993 
-2.15999985 2.31999993 0.399999976 
-2.24000001 2.31999993 0.479999989 
-2.24000001 2.31999993 0.560000002 
-2.15999985 2.31999993 0.479999989 
-2.15999985 2.31999993 0.560000002 
-2.24000001 2.31999993 0.639999986 
-2.24000001 2.31999993 0.719999969 
-2.15999985 2.31999993 0.639999986 
-2.15999985 2.31999993 0.719999969 
-2.24000001 2.31999993 0.799999952 
-2.24000001 2.31999993 0.879999995 
-2.15999985 2.31999993 0.799999952 
-2.15999985 2.31999993 0.879999995 
-2.24000001 2.31999993 0.959999979 
-2.24000001 2.31999993 1.03999996 
-2.15999985 2.31999993 0.959999979 
-2.15999985 2.31999993 1.03999996 
-2.15999985 2.31999993 1.12 
-2.15999985 2.31999993 1.19999993 
-2.24000001 2.39999986 0 
-2.24000001 2.39999986 0.0799999982 
-2.24000001 2.48000002 0 
-2.24000001 2.48000002 0.0799999982 
-2.15999985 2.39999986 0 
-2.15999985 2.39999986 0.0799999982 
-2.15999985 2.48000002 0 
-2.15999985 2.48000002 0.0799999982 
-2.24000001 2.39999986 0.159999996 
-2.24000001 2.39999986 0.239999995 
-2.24000001 2.48000002 0.159999996 
-2.24000001 2.48000002 0.239999995 
-2.15999985 2.39999986 0.159999996 
-2.15999985 2.39999986 0.239999995 
-2.15999985 2.48000002 0.159999996 
-2.15999985 2.48000002 0.239999995 
-2.24000001 2.39999986 0.319999993 
-2.24000001 2.39999986 0.399999976 
-2.24000001 2.48000002 0.319999993 
-2.24000001 2.48000002 0.399999976 
-2.15999985 2.39999986 0.319999993 
-2.15999985 2.39999986 0.399999976 
-2.15999985 2.48000002 0.319999993 
-2.15999985 2.48000002 0.399999976 
-2.24000001 2.39999986 0.479999989 
-2.24000001 2.39999986 0.560000002 
-2.24000001 2.48000002 0.479999989 
-2.24000001 2.48000002 0.560000002 
-2.15999985 2.39999986 0.479999989 
-2.15999985 2.39999986 0.560000002 
-2.15999985 2.48000002 0.479999989 
-2.15999985 2.48000002 0.560000002 
-2.24000001 2.39999986 0.639999986 
-2.24000001 2.39999986 0.719999969 
-2.24000001 2.48000002 0.639999986 
-2.24000001 2.48000002 0.719999969 
-2.15999985 2.39999986 0.639999986 
-2.15999985 2.39999986 0.719999969 
-2.15999985 2.48000002 0.639999986 
-2.15999985 2.48000002 0.719999969 
-2.24000001 2.39999986 0.799999952 
-2.24000001 2.39999986 0.879999995 
-2.24000001 2.48000002 0.799999952 
-2.24000001 2.48000002 0.879999995 
-2.15999985 2.39999986 0.799999952 
-2.15999985 2.39999986 0.879999995 
-2.15999985 2.48000002 0.799999952 
-2.15999985 2.48000002 0.879999995 
-2.24000001 2.39999986 0.959999979 
-2.24000001 2.39999986 1.03999996 
-2.24000001 2.48000002 0.959999979 
-2.24000001 2.48000002 1.03999996 
-2.15999985 2.39999986 0.959999979 
-2.15999985 2.39999986 1.03999996 
-2.15999985 2.48000002 0.959999979 
-2.15999985 2.48000002 1.03999996 
-2.15999985 2.39999986 1.12 
-2.15999985 2.39999986 1.19999993 
-2.15999985 2.48000002 1.12 
-2.15999985 2.48000002 1.19999993 
-2.07999992 2.31999993 0 
-2.07999992 2.31999993 0.0799999982 
-2 2.31999993 0 
-2 2.31999993 0.0799999982 
-2.07999992 2.31999993 0.159999996 
-2.07999992 2.31999993 0.239999995 
-2 2.31999993 0.159999996 
-2 2.31999993 0.239999995 
-2.07999992 2.31999993 0.319999993 
-2.07999992 2.31999993 0.399999976 
-2 2.31999993 0.319999993 
-2 2.31999993 0.399999976 
-2.07999992 2.31999993 0.479999989 
-2.07999992 2.31999993 0.560000002 
-2 2.31999993 0.479999989 
-2 2.31999993 0.560000002 
-2.07999992 2.31999993 0.639999986 
-2.07999992 2.31999993 0.719999969 
-2 2.31999993 0.639999986 
-2 2.31999993 0.719999969 
-2.07999992 2.31999993 0.799999952 
-2.07999992 2.31999993 0.879999995 
-2 2.31999993 0.799999952 
-2 2.31999993 0.879999995 
-2.07999992 2.31999993 0.959999979 
-2.07999992 2.31999993 1.03999996 
-2 2.31999993 0.959999979 
-2 2.31999993 1.03999996 
-2.07999992 2.31999993 1.12 
-2.07999992 2.31999993 1.19999993 
-2 2.31999993 1.12 
-2 2.31999993 1.19999993 
-2.07999992 2.39999986 0 
-2.07999992 2.39999986 0.0799999982 
-2.07999992 2.48000002 0 
-2.07999992 2.48000002 0.0799999982 
-2 2.39999986 0 
-2 2.39999986 0.0799999982 
-2 2.48000002 0 
-2 2.48000002 0.0799999982 
-2.07999992 2.39999986 0.159999996 
-2.07999992 2.39999986 0.239999995 
-2.07999992 2.48000002 0.159999996 
-2.07999992 2.48000002 0.239999995 
-2 2.39999986 0.159999996 
-2 2.39999986 0.239999995 
-2 2.48000002 0.159999996 
-2 2.48000002 0.239999995 
-2.07999992 2.39999986 0.319999993 
-2.07999992 2.39999986 0.399999976 
-2.07999992 2.48000002 0.319999993 
-2.07999992 2.48000002 0.399999976 
-2 2.39999986 0.319999993 
-2 2.39999986 0.399999976 
-2 2.48000002 0.319999993 
-2 2.48000002 0.399999976 
-2.07999992 2.39999986 0.479999989 
-2.07999992 2.39999986 0.560000002 
-2.07999992 2.48000002 0.479999989 
-2.07999992 2.48000002 0.560000002 
-2 2.39999986 0.479999989 
-2 2.39999986 0.560000002 
-2 2.48000002 0.479999989 
-2 2.48000002 0.560000002 
-2.07999992 2.39999986 0.639999986 
-2.07999992 2.39999986 0.719999969 
-2.07999992 2.48000002 0.639999986 
-2.07999992 2.48000002 0.719999969 
-2 2.39999986 0.639999986 
-2 2.39999986 0.719999969 
-2 2.48000002 0.639999986 
-2 2.48000002 0.719999969 
-2.07999992 2.39999986 0.799999952 
-2.07999992 2.39999986 0.879999995 
-2.07999992 2.48000002 0.799999952 
-2.07999992 2.48000002 0.879999995 
-2 2.39999986 0.799999952 
-2 2.39999986 0.879999995 
-2 2.48000002 0.799999952 
-2 2.48000002 0.879999995 
-2.07999992 2.39999986 0.959999979 
-2.07999992 2.39999986 1.03999996 
-2.07999992 2.48000002 0.959999979 
-2.07999992 2.48000002 1.03999996 
-2 2.39999986 0.959999979 
-2 2.39999986 1.03999996 
-2 2.48000002 0.959999979 
-2 2.48000002 1.03999996 
-2.07999992 2.39999986 1.12 
-2.07999992 2.39999986 1.19999993 
-2.07999992 2.48000002 1.12 
-2.07999992 2.48000002 1.19999993 
-2 2.39999986 1.12 
-2 2.39999986 1.19999993 
-2 2.48000002 1.12 
-2 2.48000002 1.19999993 
-1.91999996 2.31999993 0 
-1.91999996 2.31999993 0.0799999982 
-1.83999991 2.31999993 0 
-1.83999991 2.31999993 0.0799999982 
-1.91999996 2.31999993 0.159999996 
-1.91999996 2.31999993 0.239999995 
-1.83999991 2.31999993 0.159999996 
-1.83999991 2.31999993 0.239999995 
-1.91999996 2.31999993 0.319999993 
-1.91999996 2.31999993 0.399999976 
-1.83999991 2.31999993 0.319999993 
-1.83999991 2.31999993 0.399999976 
-1.91999996 2.31999993 0.479999989 
-1.91999996 2.31999993 0.560000002 
-1.83999991 2.31999993 0.479999989 
-1.83999991 2.31999993 0.560000002 
-1.91999996 2.31999993 0.639999986 
-1.91999996 2.31999993 0.719999969 
-1.83999991 2.31999993 0.639999986 
-1.83999991 2.31999993 0.719999969 
-1.91999996 2.31999993 0.799999952 
-1.91999996 2.31999993 0.879999995 
-1.83999991 2.31999993 0.799999952 
-1.83999991 2.31999993 0.879999995 
-1.91999996 2.31999993 0.959999979 
-1.91999996 2.31999993 1.03999996 
-1.83999991 2.31999993 0.959999979 
-1.83999991 2.31999993 1.03999996 
-1.91999996 2.31999993 1.12 
-1.91999996 2.31999993 1.19999993 
-1.83999991 2.31999993 1.12 
-1.83999991 2.31999993 1.19999993 
-1.91999996 2.39999986 0 
-1.91999996 2.39999986 0.0799999982 
-1.91999996 2.48000002 0 
-1.91999996 2.48000002 0.0799999982 
-1.83999991 2.39999986 0 
-1.83999991 2.39999986 0.0799999982 
-1.83999991 2.48000002 0 
-1.83999991 2.48000002 0.0799999982 
-1.91999996 2.39999986 0.159999996 
-1.91999996 2.39999986 0.239999995 
-1.91999996 2.48000002 0.159999996 
-1.91999996 2.48000002 0.239999995 
-1.83999991 2.39999986 0.159999996 
-1.83999991 2.39999986 0.239999995 
-1.83999991 2.48000002 0.159999996 
-1.83999991 2.48000002 0.239999995 
-1.91999996 2.39999986 0.319999993 
-1.91999996 2.39999986 0.399999976 
-1.91999996 2.48000002 0.319999993 
-1.91999996 2.48000002 0.399999976 
-1.83999991 2.39999986 0.319999993 
-1.83999991 2.39999986 0.399999976 
-1.83999991 2.48000002 0.319999993 
-1.83999991 2.48000002 0.399999976 
-1.91999996 2.39999986 0.479999989 
-1.91999996 2.39999986 0.560000002 
-1.91999996 2.48000002 0.479999989 
-1.91999996 2.48000002 0.560000002 
-1.83999991 2.39999986 0.479999989 
-1.83999991 2.39999986 0.560000002 
-1.83999991 2.48000002 0.479999989 
-1.83999991 2.48000002 0.560000002 
-1.91999996 2.39999986 0.639999986 
-1.91999996 2.39999986 0.719999969 
-1.91999996 2.48000002 0.639999986 
-1.91999996 2.48000002 0.719999969 
-1.83999991 2.39999986 0.639999986 
-1.83999991 2.39999986 0.719999969 
-1.83999991 2.48000002 0.639999986 
-1.83999991 2.48000002 0.719999969 
-1.91999996 2.39999986 0.799999952 
-1.91999996 2.39999986 0.879999995 
-1.91999996 2.48000002 0.799999952 
-1.91999996 2.48000002 0.879999995 
-1.83999991 2.39999986 0.799999952 
-1.83999991 2.39999986 0.879999995 
-1.83999991 2.48000002 0.799999952 
-1.83999991 2.48000002 0.879999995 
-1.91999996 2.39999986 0.959999979 
-1.91999996 2.39999986 1.03999996 
-1.91999996 2.48000002 0.959999979 
-1.91999996 2.48000002 1.03999996 
-1.83999991 2.39999986 0.959999979 
-1.83999991 2.39999986 1.03999996 
-1.83999991 2.48000002 0.959999979 
-1.83999991 2.48000002 1.03999996 
-1.91999996 2.39999986 1.12 
-1.91999996 2.39999986 1.19999993 
-1.91999996 2.48000002 1.12 
-1.91999996 2.48000002 1.19999993 
-1.83999991 2.39999986 1.12 
-1.83999991 2.39999986 1.19999993 
-1.83999991 2.48000002 1.12 
-1.83999991 2.48000002 1.19999993 
-1.75999999 2.31999993 0 
-1.75999999 2.31999993 0.0799999982 
-1.67999995 2.31999993 0 
-1.67999995 2.31999993 0.0799999982 
-1.75999999 2.31999993 0.159999996 
-1.75999999 2.31999993 0.239999995 
-1.67999995 2.31999993 0.159999996 
-1.67999995 2.31999993 0.239999995 
-1.75999999 2.31999993 0.319999993 
-1.75999999 2.31999993 0.399999976 
-1.67999995 2.31999993 0.319999993 
-1.67999995 2.31999993 0.399999976 
-1.75999999 2.31999993 0.479999989 
-1.75999999 2.31999993 0.560000002 
-1.67999995 2.31999993 0.479999989 
-1.67999995 2.31999993 0.560000002 
-1.75999999 2.31999993 0.639999986 
-1.75999999 2.31999993 0.719999969 
-1.67999995 2.31999993 0.639999986 
-1.67999995 2.31999993 0.719999969 
-1.75999999 2.31999993 0.799999952 
-1.75999999 2.31999993 0.879999995 
-1.67999995 2.31999993 0.799999952 
-1.67999995 2.31999993 0.879999995 
-1.75999999 2.31999993 0.959999979 
-1.75999999 2.31999993 1.03999996 
-1.67999995 2.31999993 0.959999979 
-1.67999995 2.31999993 1.03999996 
-1.75999999 2.31999993 1.12 
-1.75999999 2.31999993 1.19999993 
-1.67999995 2.31999993 1.12 
-1.67999995 2.31999993 1.19999993 
-1.75999999 2.39999986 0 
-1.75999999 2.39999986 0.0799999982 
-1.75999999 2.48000002 0 
-1.75999999 2.48000002 0.0799999982 
-1.67999995 2.39999986 0 
-1.67999995 2.39999986 0.0799999982 
-1.67999995 2.48000002 0 
-1.67999995 2.48000002 0.0799999982 
-1.75999999 2.39999986 0.159999996 
-1.75999999 2.39999986 0.239999995 
-1.75999999 2.48000002 0.159999996 
-1.75999999 2.48000002 0.239999995 
-1.67999995 2.39999986 0.159999996 
-1.67999995 2.39999986 0.239999995 
-1.67999995 2.48000002 0.159999996 
-1.67999995 2.48000002 0.239999995 
-1.75999999 2.39999986 0.319999993 
-1.75999999 2.39999986 0.399999976 
-1.75999999 2.48000002 0.319999993 
-1.75999999 2.48000002 0.399999976 
-1.67999995 2.39999986 0.319999993 
-1.67999995 2.39999986 0.399999976 
-1.67999995 2.48000002 0.319999993 
-1.67999995 2.48000002 0.399999976 
-1.75999999 2.39999986 0.479999989 
-1.75999999 2.39999986 0.560000002 
-1.75999999 2.48000002 0.479999989 
-1.75999999 2.48000002 0.560000002 
-1.67999995 2.39999986 0.479999989 
-1.67999995 2.39999986 0.560000002 
-1.67999995 2.48000002 0.479999989 
-1.67999995 2.48000002 0.560000002 
-1.75999999 2.39999986 0.639999986 
-1.75999999 2.39999986 0.719999969 
-1.75999999 2.48000002 0.639999986 
-1.75999999 2.48000002 0.719999969 
-1.67999995 2.39999986 0.639999986 
-1.67999995 2.39999986 0.719999969 
-1.67999995 2.48000002 0.639999986 
-1.67999995 2.48000002 0.719999969 
-1.75999999 2.39999986 0.799999952 
-1.75999999 2.39999986 0.879999995 
-1.75999999 2.48000002 0.799999952 
-1.75999999 2.48000002 0.879999995 
-1.67999995 2.39999986 0.799999952 
-1.67999995 2.39999986 0.879999995 
-1.67999995 2.48000002 0.799999952 
-1.67999995 2.48000002 0.879999995 
-1.75999999 2.39999986 0.959999979 
-1.75999999 2.39999986 1.03999996 
-1.75999999 2.48000002 0.959999979 
-1.75999999 2.48000002 1.03999996 
-1.67999995 2.39999986 0.959999979 
-1.67999995 2.39999986 1.03999996 
-1.67999995 2.48000002 0.959999979 
-1.67999995 2.48000002 1.03999996 
-1.75999999 2.39999986 1.12 
-1.75999999 2.39999986 1.19999993 
-1.75999999 2.48000002 1.12 
-1.75999999 2.48000002 1.19999993 
-1.67999995 2.39999986 1.12 
-1.67999995 2.39999986 1.19999993 
-1.67999995 2.48000002 1.12 
-1.67999995 2.48000002 1.19999993 
-1.5999999 2.31999993 0 
-1.5999999 2.31999993 0.0799999982 
-1.51999998 2.31999993 0 
-1.51999998 2.31999993 0.0799999982 
-1.5999999 2.31999993 0.159999996 
-1.5999999 2.31999993 0.239999995 
-1.51999998 2.31999993 0.159999996 
-1.51999998 2.31999993 0.239999995 
-1.5999999 2.31999993 0.319999993 
-1.5999999 2.31999993 0.399999976 
-1.51999998 2.31999993 0.319999993 
-1.51999998 2.31999993 0.399999976 
-1.5999999 2.31999993 0.479999989 
-1.5999999 2.31999993 0.560000002 
-1.51999998 2.31999993 0.479999989 
-1.51999998 2.31999993 0.560000002 
-1.5999999 2.31999993 0.639999986 
-1.5999999 2.31999993 0.719999969 
-1.51999998 2.31999993 0.639999986 
-1.51999998 2.31999993 0.719999969 
-1.5999999 2.31999993 0.799999952 
-1.5999999 2.31999993 0.879999995 
-1.51999998 2.31999993 0.799999952 
-1.51999998 2.31999993 0.879999995 
-1.5999999 2.31999993 0.959999979 
-1.5999999 2.31999993 1.03999996 
-1.51999998 2.31999993 0.959999979 
-1.51999998 2.31999993 1.03999996 
-1.5999999 2.31999993 1.12 
-1.5999999 2.31999993 1.19999993 
-1.51999998 2.31999993 1.12 
-1.51999998 2.31999993 1.19999993 
-1.5999999 2.39999986 0 
-1.5999999 2.39999986 0.0799999982 
-1.5999999 2.48000002 0 
-1.5999999 2.48000002 0.0799999982 
-1.51999998 2.39999986 0 
-1.51999998 2.39999986 0.0799999982 
-1.51999998 2.48000002 0 
-1.51999998 2.48000002 0.0799999982 
-1.5999999 2.39999986 0.159999996 
-1.5999999 2.39999986 0.239999995 
-1.5999999 2.48000002 0.159999996 
-1.5999999 2.48000002 0.239999995 
-1.51999998 2.39999986 0.159999996 
-1.51999998 2.39999986 0.239999995 
-1.51999998 2.48000002 0.159999996 
-1.51999998 2.48000002 0.239999995 
-1.5999999 2.39999986 0.319999993 
-1.5999999 2.39999986 0.399999976 
-1.5999999 2.48000002 0.319999993 
-1.5999999 2.48000002 0.399999976 
-1.51999998 2.39999986 0.319999993 
-1.51999998 2.39999986 0.399999976 
-1.51999998 2.48000002 0.319999993 
-1.51999998 2.48000002 0.399999976 
-1.5999999 2.39999986 0.479999989 
-1.5999999 2.39999986 0.560000002 
-1.5999999 2.48000002 0.479999989 
-1.5999999 2.48000002 0.560000002 
-1.51999998 2.39999986 0.479999989 
-1.51999998 2.39999986 0.560000002 
-1.51999998 2.48000002 0.479999989 
-1.51999998 2.48000002 0.560000002 
-1.5999999 2.39999986 0.639999986 
-1.5999999 2.39999986 0.719999969 
-1.5999999 2.48000002 0.639999986 
-1.5999999 2.48000002 0.719999969 
-1.51999998 2.39999986 0.639999986 
-1.51999998 2.39999986 0.719999969 
-1.51999998 2.48000002 0.639999986 
-1.51999998 2.48000002 0.719999969 
-1.5999999 2.39999986 0.799999952 
-1.5999999 2.39999986 0.879999995 
-1.5999999 2.48000002 0.799999952 
-1.5999999 2.48000002 0.879999995 
-1.51999998 2.39999986 0.799999952 
-1.51999998 2.39999986 0.879999995 
-1.51999998 2.48000002 0.799999952 
-1.51999998 2.48000002 0.879999995 
-1.5999999 2.39999986 0.959999979 
-1.5999999 2.39999986 1.03999996 
-1.5999999 2.48000002 0.959999979 
-1.5999999 2.48000002 1.03999996 
-1.51999998 2.39999986 0.959999979 
-1.51999998 2.39999986 1.03999996 
-1.51999998 2.48000002 0.959999979 
-1.51999998 2.48000002 1.03999996 
-1.5999999 2.39999986 1.12 
-1.5999999 2.39999986 1.19999993 
-1.5999999 2.48000002 1.12 
-1.5999999 2.48000002 1.19999993 
-1.51999998 2.39999986 1.12 
-1.51999998 2.39999986 1.19999993 
-1.51999998 2.48000002 1.12 
-1.51999998 2.48000002 1.19999993 
-1.43999994 2.31999993 0 
-1.43999994 2.31999993 0.0799999982 
-1.36000001 2.31999993 0 
-1.36000001 2.31999993 0.0799999982 
-1.43999994 2.31999993 0.159999996 
-1.43999994 2.31999993 0.239999995 
-1.36000001 2.31999993 0.159999996 
-1.36000001 2.31999993 0.239999995 
-1.43999994 2.31999993 0.319999993 
-1.43999994 2.31999993 0.399999976 
-1.36000001 2.31999993 0.319999993 
-1.36000001 2.31999993 0.399999976 
-1.43999994 2.31999993 0.479999989 
-1.43999994 2.31999993 0.560000002 
-1.36000001 2.31999993 0.479999989 
-1.36000001 2.31999993 0.560000002 
-1.43999994 2.31999993 0.639999986 
-1.43999994 2.31999993 0.719999969 
-1.36000001 2.31999993 0.639999986 
-1.36000001 2.31999993 0.719999969 
-1.43999994 2.31999993 0.799999952 
-1.43999994 2.31999993 0.879999995 
-1.36000001 2.31999993 0.799999952 
-1.36000001 2.31999993 0.879999995 
-1.43999994 2.31999993 0.959999979 
-1.43999994 2.31999993 1.03999996 
-1.36000001 2.31999993 0.959999979 
-1.36000001 2.31999993 1.03999996 
-1.43999994 2.31999993 1.12 
-1.43999994 2.31999993 1.19999993 
-1.36000001 2.31999993 1.12 
-1.36000001 2.31999993 1.19999993 
-1.43999994 2.39999986 0 
-1.43999994 2.39999986 0.0799999982 
-1.43999994 2.48000002 0 
-1.43999994 2.48000002 0.0799999982 
-1.36000001 2.39999986 0 
-1.36000001 2.39999986 0.0799999982 
-1.36000001 2.48000002 0 
-1.36000001 2.48000002 0.0799999982 
-1.43999994 2.39999986 0.159999996 
-1.43999994 2.39999986 0.239999995 
-1.43999994 2.48000002 0.159999996 
-1.43999994 2.48000002 0.239999995 
-1.36000001 2.39999986 0.159999996 
-1.36000001 2.39999986 0.239999995 
-1.36000001 2.48000002 0.159999996 
-1.36000001 2.48000002 0.239999995 
-1.43999994 2.39999986 0.319999993 
-1.43999994 2.39999986 0.399999976 
-1.43999994 2.48000002 0.319999993 
-1.43999994 2.48000002 0.399999976 
-1.36000001 2.39999986 0.319999993 
-1.36000001 2.39999986 0.399999976 
-1.36000001 2.48000002 0.319999993 
-1.36000001 2.48000002 0.399999976 
-1.43999994 2.39999986 0.479999989 
-1.43999994 2.39999986 0.560000002 
-1.43999994 2.48000002 0.479999989 
-1.43999994 2.48000002 0.560000002 
-1.36000001 2.39999986 0.479999989 
-1.36000001 2.39999986 0.560000002 
-1.36000001 2.48000002 0.479999989 
-1.36000001 2.48000002 0.560000002 
-1.43999994 2.39999986 0.639999986 
-1.43999994 2.39999986 0.719999969 
-1.43999994 2.48000002 0.639999986 
-1.43999994 2.48000002 0.719999969 
-1.36000001 2.39999986 0.639999986 
-1.36000001 2.39999986 0.719999969 
-1.36000001 2.48000002 0.639999986 
-1.36000001 2.48000002 0.719999969 
-1.43999994 2.39999986 0.799999952 
-1.43999994 2.39999986 0.879999995 
-1.43999994 2.48000002 0.799999952 
-1.43999994 2.48000002 0.879999995 
-1.36000001 2.39999986 0.799999952 
-1.36000001 2.39999986 0.879999995 
-1.36000001 2.48000002 0.799999952 
-1.36000001 2.48000002 0.879999995 
-1.43999994 2.39999986 0.959999979 
-1.43999994 2.39999986 1.03999996 
-1.43999994 2.48000002 0.959999979 
-1.43999994 2.48000002 1.03999996 
-1.36000001 2.39999986 0.959999979 
-1.36000001 2.39999986 1.03999996 
-1.36000001 2.48000002 0.959999979 
-1.36000001 2.48000002 1.03999996 
-1.43999994 2.39999986 1.12 
-1.43999994 2.39999986 1.19999993 
-1.43999994 2.48000002 1.12 
-1.43999994 2.48000002 1.19999993 
-1.36000001 2.39999986 1.12 
-1.36000001 2.39999986 1.19999993 
-1.36000001 2.48000002 1.12 
-1.36000001 2.48000002 1.19999993 
-2.07999992 2.31999993 1.27999997 
-2.07999992 2.31999993 1.36000001 
-2 2.31999993 1.27999997 
-2 2.31999993 1.36000001 
-2 2.31999993 1.43999994 
-2.07999992 2.39999986 1.27999997 
-2.07999992 2.39999986 1.36000001 
-2.07999992 2.48000002 1.27999997 
-2.07999992 2.48000002 1.36000001 
-2 2.39999986 1.27999997 
-2 2.39999986 1.36000001 
-2 2.48000002 1.27999997 
-2 2.48000002 1.36000001 
-2 2.39999986 1.43999994 
-2 2.48000002 1.43999994 
-1.91999996 2.31999993 1.27999997 
-1.91999996 2.31999993 1.36000001 
-1.83999991 2.31999993 1.27999997 
-1.83999991 2.31999993 1.36000001 
-1.91999996 2.31999993 1.43999994 
-1.91999996 2.31999993 1.51999998 
-1.83999991 2.31999993 1.43999994 
-1.83999991 2.31999993 1.51999998 
-1.83999991 2.31999993 1.5999999 
-1.83999991 2.31999993 1.67999995 
-1.91999996 2.39999986 1.27999997 
-1.91999996 2.39999986 1.36000001 
-1.91999996 2.48000002 1.27999997 
-1.91999996 2.48000002 1.36000001 
-1.83999991 2.39999986 1.27999997 
-1.83999991 2.39999986 1.36000001 
-1.83999991 2.48000002 1.27999997 
-1.83999991 2.48000002 1.36000001 
-1.91999996 2.39999986 1.43999994 
-1.91999996 2.39999986 1.51999998 
-1.91999996 2.48000002 1.43999994 
-1.91999996 2.48000002 1.51999998 
-1.83999991 2.39999986 1.43999994 
-1.83999991 2.39999986 1.51999998 
-1.83999991 2.48000002 1.43999994 
-1.83999991 2.48000002 1.51999998 
-1.83999991 2.39999986 1.5999999 
-1.83999991 2.39999986 1.67999995 
-1.83999991 2.48000002 1.5999999 
-1.83999991 2.48000002 1.67999995 
-1.75999999 2.31999993 1.27999997 
-1.75999999 2.31999993 1.36000001 
-1.67999995 2.31999993 1.27999997 
-1.67999995 2.31999993 1.36000001 
-1.75999999 2.31999993 1.43999994 
-1.75999999 2.31999993 1.51999998 
-1.67999995 2.31999993 1.43999994 
-1.67999995 2.31999993 1.51999998 
-1.75999999 2.31999993 1.5999999 
-1.75999999 2.31999993 1.67999995 
-1.67999995 2.31999993 1.5999999 
-1.67999995 2.31999993 1.67999995 
-1.75999999 2.31999993 1.75999999 
-1.67999995 2.31999993 1.75999999 
-1.67999995 2.31999993 1.83999991 
-1.75999999 2.39999986 1.27999997 
-1.75999999 2.39999986 1.36000001 
-1.75999999 2.48000002 1.27999997 
-1.75999999 2.48000002 1.36000001 
-1.67999995 2.39999986 1.27999997 
-1.67999995 2.39999986 1.36000001 
-1.67999995 2.48000002 1.27999997 
-1.67999995 2.48000002 1.36000001 
-1.75999999 2.39999986 1.43999994 
-1.75999999 2.39999986 1.51999998 
-1.75999999 2.48000002 1.43999994 
-1.75999999 2.48000002 1.51999998 
-1.67999995 2.39999986 1.43999994 
-1.67999995 2.39999986 1.51999998 
-1.67999995 2.48000002 1.43999994 
-1.67999995 2.48000002 1.51999998 
-1.75999999 2.39999986 1.5999999 
-1.75999999 2.39999986 1.67999995 
-1.75999999 2.48000002 1.5999999 
-1.75999999 2.48000002 1.67999995 
-1.67999995 2.39999986 1.5999999 
-1.67999995 2.39999986 1.67999995 
-1.67999995 2.48000002 1.5999999 
-1.67999995 2.48000002 1.67999995 
-1.75999999 2.39999986 1.75999999 
-1.75999999 2.48000002 1.75999999 
-1.67999995 2.39999986 1.75999999 
-1.67999995 2.39999986 1.83999991 
-1.67999995 2.48000002 1.75999999 
-1.67999995 2.48000002 1.83999991 
-1.5999999 2.31999993 1.27999997 
-1.5999999 2.31999993 1.36000001 
-1.51999998 2.31999993 1.27999997 
-1.51999998 2.31999993 1.36000001 
-1.5999999 2.31999993 1.43999994 
-1.5999999 2.31999993 1.51999998 
-1.51999998 2.31999993 1.43999994 
-1.51999998 2.31999993 1.51999998 
-1.5999999 2.31999993 1.5999999 
-1.5999999 2.31999993 1.67999995 
-1.51999998 2.31999993 1.5999999 
-1.51999998 2.31999993 1.67999995 
-1.5999999 2.31999993 1.75999999 
-1.5999999 2.31999993 1.83999991 
-1.51999998 2.31999993 1.75999999 
-1.51999998 2.31999993 1.83999991 
-1.5999999 2.31999993 1.91999996 
-1.51999998 2.31999993 1.91999996 
-1.5999999 2.39999986 1.27999997 
-1.5999999 2.39999986 1.36000001 
-1.5999999 2.48000002 1.27999997 
-1.5999999 2.48000002 1.36000001 
-1.51999998 2.39999986 1.27999997 
-1.51999998 2.39999986 1.36000001 
-1.51999998 2.48000002 1.27999997 
-1.51999998 2.48000002 1.36000001 
-1.5999999 2.39999986 1.43999994 
-1.5999999 2.39999986 1.51999998 
-1.5999999 2.48000002 1.43999994 
-1.5999999 2.48000002 1.51999998 
-1.51999998 2.39999986 1.43999994 
-1.51999998 2.39999986 1.51999998 
-1.51999998 2.48000002 1.43999994 
-1.51999998 2.48000002 1.51999998 
-1.5999999 2.39999986 1.5999999 
-1.5999999 2.39999986 1.67999995 
-1.5999999 2.48000002 1.5999999 
-1.5999999 2.48000002 1.67999995 
-1.51999998 2.39999986 1.5999999 
-1.51999998 2.39999986 1.67999995 
-1.51999998 2.48000002 1.5999999 
-1.51999998 2.48000002 1.67999995 
-1.5999999 2.39999986 1.75999999 
-1.5999999 2.39999986 1.83999991 
-1.5999999 2.48000002 1.75999999 
-1.5999999 2.48000002 1.83999991 
-1.51999998 2.39999986 1.75999999 
-1.51999998 2.39999986 1.83999991 
-1.51999998 2.48000002 1.75999999 
-1.51999998 2.48000002 1.83999991 
-1.5999999 2.39999986 1.91999996 
-1.5999999 2.48000002 1.91999996 
-1.51999998 2.39999986 1.91999996 
-1.51999998 2.48000002 1.91999996 
-1.43999994 2.31999993 1.27999997 
-1.43999994 2.31999993 1.36000001 
-1.36000001 2.31999993 1.27999997 
-1.36000001 2.31999993 1.36000001 
-1.43999994 2.31999993 1.43999994 
-1.43999994 2.31999993 1.51999998 
-1.36000001 2.31999993 1.43999994 
-1.36000001 2.31999993 1.51999998 
-1.43999994 2.31999993 1.5999999 
-1.43999994 2.31999993 1.67999995 
-1.36000001 2.31999993 1.5999999 
-1.36000001 2.31999993 1.67999995 
-1.43999994 2.31999993 1.75999999 
-1.43999994 2.31999993 1.83999991 
-1.36000001 2.31999993 1.75999999 
-1.36000001 2.31999993 1.83999991 
-1.43999994 2.31999993 1.91999996 
-1.43999994 2.31999993 2 
-1.36000001 2.31999993 1.91999996 
-1.36000001 2.31999993 2 
-1.36000001 2.31999993 2.07999992 
-1.43999994 2.39999986 1.27999997 
-1.43999994 2.39999986 1.36000001 
-1.43999994 2.48000002 1.27999997 
-1.43999994 2.48000002 1.36000001 
-1.36000001 2.39999986 1.27999997 
-1.36000001 2.39999986 1.36000001 
-1.36000001 2.48000002 1.27999997 
-1.36000001 2.48000002 1.36000001 
-1.43999994 2.39999986 1.43999994 
-1.43999994 2.39999986 1.51999998 
-1.43999994 2.48000002 1.43999994 
-1.43999994 2.48000002 1.51999998 
-1.36000001 2.39999986 1.43999994 
-1.36000001 2.39999986 1.51999998 
-1.36000001 2.48000002 1.43999994 
-1.36000001 2.48000002 1.51999998 
-1.43999994 2.39999986 1.5999999 
-1.43999994 2.39999986 1.67999995 
-1.43999994 2.48000002 1.5999999 
-1.43999994 2.48000002 1.67999995 
-1.36000001 2.39999986 1.5999999 
-1.36000001 2.39999986 1.67999995 
-1.36000001 2.48000002 1.5999999 
-1.36000001 2.48000002 1.67999995 
-1.43999994 2.39999986 1.75999999 
-1.43999994 2.39999986 1.83999991 
-1.43999994 2.48000002 1.75999999 
-1.43999994 2.48000002 1.83999991 
-1.36000001 2.39999986 1.75999999 
-1.36000001 2.39999986 1.83999991 
-1.36000001 2.48000002 1.75999999 
-1.36000001 2.48000002 1.83999991 
-1.43999994 2.39999986 1.91999996 
-1.43999994 2.39999986 2 
-1.43999994 2.48000002 1.91999996 
-1.43999994 2.48000002 2 
-1.36000001 2.39999986 1.91999996 
-1.36000001 2.39999986 2 
-1.36000001 2.48000002 1.91999996 
-1.36000001 2.48000002 2 
-1.36000001 2.39999986 2.07999992 
-1.36000001 2.48000002 2.07999992 
-2.48000002 2.55999994 0 
-2.48000002 2.55999994 0.0799999982 
-2.48000002 2.63999987 0 
-2.48000002 2.63999987 0.0799999982 
-2.48000002 2.55999994 0.159999996 
-2.48000002 2.55999994 0.239999995 
-2.48000002 2.63999987 0.159999996 
-2.48000002 2.63999987 0.239999995 
-2.48000002 2.72000003 0 
-2.48000002 2.72000003 0.0799999982 
-2.48000002 2.79999995 0 
-2.48000002 2.79999995 0.0799999982 
-2.48000002 2.72000003 0.159999996 
-2.48000002 2.72000003 0.239999995 
-2.48000002 2.79999995 0.159999996 
-2.48000002 2.79999995 0.239999995 
-2.48000002 2.87999988 0 
-2.48000002 2.87999988 0.0799999982 
-2.48000002 2.96000004 0 
-2.48000002 2.96000004 0.0799999982 
-2.48000002 2.87999988 0.159999996 
-2.48000002 2.87999988 0.239999995 
-2.48000002 2.96000004 0.159999996 
-2.48000002 2.96000004 0.239999995 
-2.48000002 3.03999996 0 
-2.48000002 3.03999996 0.0799999982 
-2.48000002 3.11999989 0 
-2.48000002 3.11999989 0.0799999982 
-2.48000002 3.03999996 0.159999996 
-2.48000002 3.03999996 0.239999995 
-2.48000002 3.11999989 0.159999996 
-2.48000002 3.11999989 0.239999995 
-2.48000002 3.19999981 0 
-2.48000002 3.19999981 0.0799999982 
-2.48000002 3.27999997 0 
-2.48000002 3.27999997 0.0799999982 
-2.48000002 3.19999981 0.159999996 
-2.48000002 3.19999981 0.239999995 
-2.48000002 3.27999997 0.159999996 
-2.48000002 3.27999997 0.239999995 
-2.48000002 3.3599999 0 
-2.48000002 3.3599999 0.0799999982 
-2.48000002 3.43999982 0 
-2.48000002 3.43999982 0.0799999982 
-2.48000002 3.3599999 0.159999996 
-2.48000002 3.3599999 0.239999995 
-2.48000002 3.43999982 0.159999996 
-2.48000002 3.43999982 0.239999995 
-2.48000002 3.51999998 0 
-2.48000002 3.51999998 0.0799999982 
-2.48000002 3.5999999 0 
-2.48000002 3.5999999 0.0799999982 
-2.48000002 3.51999998 0.159999996 
-2.48000002 3.51999998 0.239999995 
-2.48000002 3.5999999 0.159999996 
-2.48000002 3.5999999 0.239999995 
-2.48000002 3.67999983 0 
-2.48000002 3.67999983 0.0799999982 
-2.48000002 3.67999983 0.159999996 
-2.48000002 3.67999983 0.239999995 
-2.39999986 2.55999994 0 
-2.39999986 2.55999994 0.0799999982 
-2.39999986 2.63999987 0 
-2.39999986 2.63999987 0.0799999982 
-2.31999993 2.55999994 0 
-2.31999993 2.55999994 0.0799999982 
-2.31999993 2.63999987 0 
-2.31999993 2.63999987 0.0799999982 
-2.39999986 2.55999994 0.159999996 
-2.39999986 2.55999994 0.239999995 
-2.39999986 2.63999987 0.159999996 
-2.39999986 2.63999987 0.239999995 
-2.31999993 2.55999994 0.159999996 
-2.31999993 2.55999994 0.239999995 
-2.31999993 2.63999987 0.159999996 
-2.31999993 2.63999987 0.239999995 
-2.39999986 2.55999994 0.319999993 
-2.39999986 2.55999994 0.399999976 
-2.39999986 2.63999987 0.319999993 
-2.39999986 2.63999987 0.399999976 
-2.31999993 2.55999994 0.319999993 
-2.31999993 2.55999994 0.399999976 
-2.31999993 2.63999987 0.319999993 
-2.31999993 2.63999987 0.399999976 
-2.39999986 2.55999994 0.479999989 
-2.39999986 2.55999994 0.560000002 
-2.39999986 2.63999987 0.479999989 
-2.39999986 2.63999987 0.560000002 
-2.31999993 2.55999994 0.479999989 
-2.31999993 2.55999994 0.560000002 
-2.31999993 2.63999987 0.479999989 
-2.31999993 2.63999987 0.560000002 
-2.39999986 2.55999994 0.639999986 
-2.39999986 2.63999987 0.639999986 
-2.31999993 2.55999994 0.639999986 
-2.31999993 2.55999994 0.719999969 
-2.31999993 2.63999987 0.639999986 
-2.31999993 2.63999987 0.719999969 
-2.31999993 2.55999994 0.799999952 
-2.31999993 2.55999994 0.879999995 
-2.31999993 2.63999987 0.799999952 
-2.31999993 2.63999987 0.879999995 
-2.39999986 2.72000003 0 
-2.39999986 2.72000003 0.0799999982 
-2.39999986 2.79999995 0 
-2.39999986 2.79999995 0.0799999982 
-2.31999993 2.72000003 0 
-2.31999993 2.72000003 0.0799999982 
-2.31999993 2.79999995 0 
-2.31999993 2.79999995 0.0799999982 
-2.39999986 2.72000003 0.159999996 
-2.39999986 2.72000003 0.239999995 
-2.39999986 2.79999995 0.159999996 
-2.39999986 2.79999995 0.239999995 
-2.31999993 2.72000003 0.159999996 
-2.31999993 2.72000003 0.239999995 
-2.31999993 2.79999995 0.159999996 
-2.31999993 2.79999995 0.239999995 
-2.39999986 2.72000003 0.319999993 
-2.39999986 2.72000003 0.399999976 
-2.39999986 2.79999995 0.319999993 
-2.39999986 2.79999995 0.399999976 
-2.31999993 2.72000003 0.319999993 
-2.31999993 2.72000003 0.399999976 
-2.31999993 2.79999995 0.319999993 
-2.31999993 2.79999995 0.399999976 
-2.39999986 2.72000003 0.479999989 
-2.39999986 2.72000003 0.560000002 
-2.39999986 2.79999995 0.479999989 
-2.39999986 2.79999995 0.560000002 
-2.31999993 2.72000003 0.479999989 
-2.31999993 2.72000003 0.560000002 
-2.31999993 2.79999995 0.479999989 
-2.31999993 2.79999995 0.560000002 
-2.39999986 2.72000003 0.639999986 
-2.39999986 2.79999995 0.639999986 
-2.31999993 2.72000003 0.639999986 
-2.31999993 2.72000003 0.719999969 
-2.31999993 2.79999995 0.639999986 
-2.31999993 2.79999995 0.719999969 
-2.31999993 2.72000003 0.799999952 
-2.31999993 2.72000003 0.879999995 
-2.31999993 2.79999995 0.799999952 
-2.31999993 2.79999995 0.879999995 
-2.39999986 2.87999988 0 
-2.39999986 2.87999988 0.0799999982 
-2.39999986 2.96000004 0 
-2.39999986 2.96000004 0.0799999982 
-2.31999993 2.87999988 0 
-2.31999993 2.87999988 0.0799999982 
-2.31999993 2.96000004 0 
-2.31999993 2.96000004 0.0799999982 
-2.39999986 2.87999988 0.159999996 
-2.39999986 2.87999988 0.239999995 
-2.39999986 2.96000004 0.159999996 
-2.39999986 2.96000004 0.239999995 
-2.31999993 2.87999988 0.159999996 
-2.31999993 2.87999988 0.239999995 
-2.31999993 2.96000004 0.159999996 
-2.31999993 2.96000004 0.239999995 
-2.39999986 2.87999988 0.319999993 
-2.39999986 2.87999988 0.399999976 
-2.39999986 2.96000004 0.319999993 
-2.39999986 2.96000004 0.399999976 
-2.31999993 2.87999988 0.319999993 
-2.31999993 2.87999988 0.399999976 
-2.31999993 2.96000004 0.319999993 
-2.31999993 2.96000004 0.399999976 
-2.39999986 2.87999988 0.479999989 
-2.39999986 2.87999988 0.560000002 
-2.39999986 2.96000004 0.479999989 
-2.39999986 2.96000004 0.560000002 
-2.31999993 2.87999988 0.479999989 
