ply
format ascii 1.0
comment created by gply, a Houdini tool.
comment converted from .[b]geo
comment for more information about Houdini, try:
comment www.sidefx.com
element vertex 1315
property float x
property float y
property float z
element face 0
property list uchar int vertex_indices
end_header
-0.399999976 3.51999998 -2 
-0.399999976 3.5999999 -2.07999992 
-0.399999976 3.5999999 -2 
-0.479999989 3.51999998 -1.91999996 
-0.479999989 3.51999998 -1.83999991 
-0.479999989 3.5999999 -1.91999996 
-0.479999989 3.5999999 -1.83999991 
-0.399999976 3.51999998 -1.91999996 
-0.399999976 3.51999998 -1.83999991 
-0.399999976 3.5999999 -1.91999996 
-0.399999976 3.5999999 -1.83999991 
-0.479999989 3.51999998 -1.75999999 
-0.479999989 3.51999998 -1.67999995 
-0.479999989 3.5999999 -1.75999999 
-0.479999989 3.5999999 -1.67999995 
-0.399999976 3.51999998 -1.75999999 
-0.399999976 3.51999998 -1.67999995 
-0.399999976 3.5999999 -1.75999999 
-0.399999976 3.5999999 -1.67999995 
-0.479999989 3.51999998 -1.5999999 
-0.479999989 3.51999998 -1.51999998 
-0.479999989 3.5999999 -1.5999999 
-0.479999989 3.5999999 -1.51999998 
-0.399999976 3.51999998 -1.5999999 
-0.399999976 3.51999998 -1.51999998 
-0.399999976 3.5999999 -1.5999999 
-0.399999976 3.5999999 -1.51999998 
-0.479999989 3.51999998 -1.43999994 
-0.479999989 3.51999998 -1.36000001 
-0.479999989 3.5999999 -1.43999994 
-0.479999989 3.5999999 -1.36000001 
-0.399999976 3.51999998 -1.43999994 
-0.399999976 3.51999998 -1.36000001 
-0.399999976 3.5999999 -1.43999994 
-0.399999976 3.5999999 -1.36000001 
-0.479999989 3.67999983 -2.39999986 
-0.479999989 3.67999983 -2.31999993 
-0.479999989 3.75999999 -2.39999986 
-0.479999989 3.75999999 -2.31999993 
-0.399999976 3.67999983 -2.39999986 
-0.399999976 3.67999983 -2.31999993 
-0.399999976 3.75999999 -2.39999986 
-0.399999976 3.75999999 -2.31999993 
-0.479999989 3.67999983 -2.24000001 
-0.479999989 3.67999983 -2.15999985 
-0.479999989 3.75999999 -2.24000001 
-0.479999989 3.75999999 -2.15999985 
-0.399999976 3.67999983 -2.24000001 
-0.399999976 3.67999983 -2.15999985 
-0.399999976 3.75999999 -2.24000001 
-0.399999976 3.75999999 -2.15999985 
-0.479999989 3.67999983 -2.07999992 
-0.479999989 3.67999983 -2 
-0.479999989 3.75999999 -2.07999992 
-0.479999989 3.75999999 -2 
-0.399999976 3.67999983 -2.07999992 
-0.399999976 3.67999983 -2 
-0.399999976 3.75999999 -2.07999992 
-0.399999976 3.75999999 -2 
-0.479999989 3.67999983 -1.91999996 
-0.479999989 3.67999983 -1.83999991 
-0.479999989 3.75999999 -1.91999996 
-0.479999989 3.75999999 -1.83999991 
-0.399999976 3.67999983 -1.91999996 
-0.399999976 3.67999983 -1.83999991 
-0.399999976 3.75999999 -1.91999996 
-0.399999976 3.75999999 -1.83999991 
-0.479999989 3.67999983 -1.75999999 
-0.479999989 3.67999983 -1.67999995 
-0.479999989 3.75999999 -1.75999999 
-0.479999989 3.75999999 -1.67999995 
-0.399999976 3.67999983 -1.75999999 
-0.399999976 3.67999983 -1.67999995 
-0.399999976 3.75999999 -1.75999999 
-0.399999976 3.75999999 -1.67999995 
-0.479999989 3.67999983 -1.5999999 
-0.479999989 3.67999983 -1.51999998 
-0.479999989 3.75999999 -1.5999999 
-0.479999989 3.75999999 -1.51999998 
-0.399999976 3.67999983 -1.5999999 
-0.399999976 3.67999983 -1.51999998 
-0.399999976 3.75999999 -1.5999999 
-0.399999976 3.75999999 -1.51999998 
-0.479999989 3.67999983 -1.43999994 
-0.479999989 3.67999983 -1.36000001 
-0.479999989 3.75999999 -1.43999994 
-0.479999989 3.75999999 -1.36000001 
-0.399999976 3.67999983 -1.43999994 
-0.399999976 3.67999983 -1.36000001 
-0.399999976 3.75999999 -1.43999994 
-0.399999976 3.75999999 -1.36000001 
-0.239999995 2.79999995 -2.48000002 
-0.319999993 2.79999995 -2.39999986 
-0.319999993 2.79999995 -2.31999993 
-0.239999995 2.79999995 -2.39999986 
-0.239999995 2.79999995 -2.31999993 
-0.319999993 2.79999995 -2.24000001 
-0.319999993 2.79999995 -2.15999985 
-0.239999995 2.79999995 -2.24000001 
-0.239999995 2.79999995 -2.15999985 
-0.319999993 2.79999995 -2.07999992 
-0.319999993 2.79999995 -2 
-0.239999995 2.79999995 -2.07999992 
-0.239999995 2.79999995 -2 
-0.319999993 2.79999995 -1.91999996 
-0.319999993 2.79999995 -1.83999991 
-0.239999995 2.79999995 -1.91999996 
-0.239999995 2.79999995 -1.83999991 
-0.319999993 2.79999995 -1.75999999 
-0.319999993 2.79999995 -1.67999995 
-0.239999995 2.79999995 -1.75999999 
-0.239999995 2.79999995 -1.67999995 
-0.319999993 2.79999995 -1.5999999 
-0.319999993 2.79999995 -1.51999998 
-0.239999995 2.79999995 -1.5999999 
-0.239999995 2.79999995 -1.51999998 
-0.319999993 2.79999995 -1.43999994 
-0.319999993 2.79999995 -1.36000001 
-0.239999995 2.79999995 -1.43999994 
-0.239999995 2.79999995 -1.36000001 
-0.239999995 2.87999988 -2.48000002 
-0.239999995 2.96000004 -2.48000002 
-0.319999993 2.87999988 -2.39999986 
-0.319999993 2.87999988 -2.31999993 
-0.319999993 2.96000004 -2.39999986 
-0.319999993 2.96000004 -2.31999993 
-0.239999995 2.87999988 -2.39999986 
-0.239999995 2.87999988 -2.31999993 
-0.239999995 2.96000004 -2.39999986 
-0.239999995 2.96000004 -2.31999993 
-0.319999993 2.87999988 -2.24000001 
-0.319999993 2.87999988 -2.15999985 
-0.319999993 2.96000004 -2.24000001 
-0.319999993 2.96000004 -2.15999985 
-0.239999995 2.87999988 -2.24000001 
-0.239999995 2.87999988 -2.15999985 
-0.239999995 2.96000004 -2.24000001 
-0.239999995 2.96000004 -2.15999985 
-0.319999993 2.87999988 -2.07999992 
-0.319999993 2.87999988 -2 
-0.319999993 2.96000004 -2.07999992 
-0.319999993 2.96000004 -2 
-0.239999995 2.87999988 -2.07999992 
-0.239999995 2.87999988 -2 
-0.239999995 2.96000004 -2.07999992 
-0.239999995 2.96000004 -2 
-0.319999993 2.87999988 -1.91999996 
-0.319999993 2.87999988 -1.83999991 
-0.319999993 2.96000004 -1.91999996 
-0.319999993 2.96000004 -1.83999991 
-0.239999995 2.87999988 -1.91999996 
-0.239999995 2.87999988 -1.83999991 
-0.239999995 2.96000004 -1.91999996 
-0.239999995 2.96000004 -1.83999991 
-0.319999993 2.87999988 -1.75999999 
-0.319999993 2.87999988 -1.67999995 
-0.319999993 2.96000004 -1.75999999 
-0.319999993 2.96000004 -1.67999995 
-0.239999995 2.87999988 -1.75999999 
-0.239999995 2.87999988 -1.67999995 
-0.239999995 2.96000004 -1.75999999 
-0.239999995 2.96000004 -1.67999995 
-0.319999993 2.87999988 -1.5999999 
-0.319999993 2.87999988 -1.51999998 
-0.319999993 2.96000004 -1.5999999 
-0.319999993 2.96000004 -1.51999998 
-0.239999995 2.87999988 -1.5999999 
-0.239999995 2.87999988 -1.51999998 
-0.239999995 2.96000004 -1.5999999 
-0.239999995 2.96000004 -1.51999998 
-0.319999993 2.87999988 -1.43999994 
-0.319999993 2.87999988 -1.36000001 
-0.319999993 2.96000004 -1.43999994 
-0.319999993 2.96000004 -1.36000001 
-0.239999995 2.87999988 -1.43999994 
-0.239999995 2.87999988 -1.36000001 
-0.239999995 2.96000004 -1.43999994 
-0.239999995 2.96000004 -1.36000001 
-0.239999995 3.03999996 -2.48000002 
-0.239999995 3.11999989 -2.48000002 
-0.319999993 3.03999996 -2.39999986 
-0.319999993 3.03999996 -2.31999993 
-0.319999993 3.11999989 -2.39999986 
-0.319999993 3.11999989 -2.31999993 
-0.239999995 3.03999996 -2.39999986 
-0.239999995 3.03999996 -2.31999993 
-0.239999995 3.11999989 -2.39999986 
-0.239999995 3.11999989 -2.31999993 
-0.319999993 3.03999996 -2.24000001 
-0.319999993 3.03999996 -2.15999985 
-0.319999993 3.11999989 -2.24000001 
-0.319999993 3.11999989 -2.15999985 
-0.239999995 3.03999996 -2.24000001 
-0.239999995 3.03999996 -2.15999985 
-0.239999995 3.11999989 -2.24000001 
-0.239999995 3.11999989 -2.15999985 
-0.319999993 3.03999996 -2.07999992 
-0.319999993 3.03999996 -2 
-0.319999993 3.11999989 -2.07999992 
-0.319999993 3.11999989 -2 
-0.239999995 3.03999996 -2.07999992 
-0.239999995 3.03999996 -2 
-0.239999995 3.11999989 -2.07999992 
-0.239999995 3.11999989 -2 
-0.319999993 3.03999996 -1.91999996 
-0.319999993 3.03999996 -1.83999991 
-0.319999993 3.11999989 -1.91999996 
-0.319999993 3.11999989 -1.83999991 
-0.239999995 3.03999996 -1.91999996 
-0.239999995 3.03999996 -1.83999991 
-0.239999995 3.11999989 -1.91999996 
-0.239999995 3.11999989 -1.83999991 
-0.319999993 3.03999996 -1.75999999 
-0.319999993 3.03999996 -1.67999995 
-0.319999993 3.11999989 -1.75999999 
-0.319999993 3.11999989 -1.67999995 
-0.239999995 3.03999996 -1.75999999 
-0.239999995 3.03999996 -1.67999995 
-0.239999995 3.11999989 -1.75999999 
-0.239999995 3.11999989 -1.67999995 
-0.319999993 3.03999996 -1.5999999 
-0.319999993 3.03999996 -1.51999998 
-0.319999993 3.11999989 -1.5999999 
-0.319999993 3.11999989 -1.51999998 
-0.239999995 3.03999996 -1.5999999 
-0.239999995 3.03999996 -1.51999998 
-0.239999995 3.11999989 -1.5999999 
-0.239999995 3.11999989 -1.51999998 
-0.319999993 3.03999996 -1.43999994 
-0.319999993 3.03999996 -1.36000001 
-0.319999993 3.11999989 -1.43999994 
-0.319999993 3.11999989 -1.36000001 
-0.239999995 3.03999996 -1.43999994 
-0.239999995 3.03999996 -1.36000001 
-0.239999995 3.11999989 -1.43999994 
-0.239999995 3.11999989 -1.36000001 
-0.239999995 3.19999981 -2.48000002 
-0.239999995 3.27999997 -2.48000002 
-0.319999993 3.19999981 -2.39999986 
-0.319999993 3.19999981 -2.31999993 
-0.319999993 3.27999997 -2.39999986 
-0.319999993 3.27999997 -2.31999993 
-0.239999995 3.19999981 -2.39999986 
-0.239999995 3.19999981 -2.31999993 
-0.239999995 3.27999997 -2.39999986 
-0.239999995 3.27999997 -2.31999993 
-0.319999993 3.19999981 -2.24000001 
-0.319999993 3.19999981 -2.15999985 
-0.319999993 3.27999997 -2.24000001 
-0.319999993 3.27999997 -2.15999985 
-0.239999995 3.19999981 -2.24000001 
-0.239999995 3.19999981 -2.15999985 
-0.239999995 3.27999997 -2.24000001 
-0.239999995 3.27999997 -2.15999985 
-0.319999993 3.19999981 -2.07999992 
-0.319999993 3.19999981 -2 
-0.319999993 3.27999997 -2.07999992 
-0.319999993 3.27999997 -2 
-0.239999995 3.19999981 -2.07999992 
-0.239999995 3.19999981 -2 
-0.239999995 3.27999997 -2.07999992 
-0.239999995 3.27999997 -2 
-0.319999993 3.19999981 -1.91999996 
-0.319999993 3.19999981 -1.83999991 
-0.319999993 3.27999997 -1.91999996 
-0.319999993 3.27999997 -1.83999991 
-0.239999995 3.19999981 -1.91999996 
-0.239999995 3.19999981 -1.83999991 
-0.239999995 3.27999997 -1.91999996 
-0.239999995 3.27999997 -1.83999991 
-0.319999993 3.19999981 -1.75999999 
-0.319999993 3.19999981 -1.67999995 
-0.319999993 3.27999997 -1.75999999 
-0.319999993 3.27999997 -1.67999995 
-0.239999995 3.19999981 -1.75999999 
-0.239999995 3.19999981 -1.67999995 
-0.239999995 3.27999997 -1.75999999 
-0.239999995 3.27999997 -1.67999995 
-0.319999993 3.19999981 -1.5999999 
-0.319999993 3.19999981 -1.51999998 
-0.319999993 3.27999997 -1.5999999 
-0.319999993 3.27999997 -1.51999998 
-0.239999995 3.19999981 -1.5999999 
-0.239999995 3.19999981 -1.51999998 
-0.239999995 3.27999997 -1.5999999 
-0.239999995 3.27999997 -1.51999998 
-0.319999993 3.19999981 -1.43999994 
-0.319999993 3.19999981 -1.36000001 
-0.319999993 3.27999997 -1.43999994 
-0.319999993 3.27999997 -1.36000001 
-0.239999995 3.19999981 -1.43999994 
-0.239999995 3.19999981 -1.36000001 
-0.239999995 3.27999997 -1.43999994 
-0.239999995 3.27999997 -1.36000001 
-0.239999995 3.3599999 -2.48000002 
-0.239999995 3.43999982 -2.48000002 
-0.319999993 3.3599999 -2.39999986 
-0.319999993 3.3599999 -2.31999993 
-0.319999993 3.43999982 -2.39999986 
-0.319999993 3.43999982 -2.31999993 
-0.239999995 3.3599999 -2.39999986 
-0.239999995 3.3599999 -2.31999993 
-0.239999995 3.43999982 -2.39999986 
-0.239999995 3.43999982 -2.31999993 
-0.319999993 3.3599999 -2.24000001 
-0.319999993 3.3599999 -2.15999985 
-0.319999993 3.43999982 -2.24000001 
-0.319999993 3.43999982 -2.15999985 
-0.239999995 3.3599999 -2.24000001 
-0.239999995 3.3599999 -2.15999985 
-0.239999995 3.43999982 -2.24000001 
-0.239999995 3.43999982 -2.15999985 
-0.319999993 3.3599999 -2.07999992 
-0.319999993 3.3599999 -2 
-0.319999993 3.43999982 -2.07999992 
-0.319999993 3.43999982 -2 
-0.239999995 3.3599999 -2.07999992 
-0.239999995 3.3599999 -2 
-0.239999995 3.43999982 -2.07999992 
-0.239999995 3.43999982 -2 
-0.319999993 3.3599999 -1.91999996 
-0.319999993 3.3599999 -1.83999991 
-0.319999993 3.43999982 -1.91999996 
-0.319999993 3.43999982 -1.83999991 
-0.239999995 3.3599999 -1.91999996 
-0.239999995 3.3599999 -1.83999991 
-0.239999995 3.43999982 -1.91999996 
-0.239999995 3.43999982 -1.83999991 
-0.319999993 3.3599999 -1.75999999 
-0.319999993 3.3599999 -1.67999995 
-0.319999993 3.43999982 -1.75999999 
-0.319999993 3.43999982 -1.67999995 
-0.239999995 3.3599999 -1.75999999 
-0.239999995 3.3599999 -1.67999995 
-0.239999995 3.43999982 -1.75999999 
-0.239999995 3.43999982 -1.67999995 
-0.319999993 3.3599999 -1.5999999 
-0.319999993 3.3599999 -1.51999998 
-0.319999993 3.43999982 -1.5999999 
-0.319999993 3.43999982 -1.51999998 
-0.239999995 3.3599999 -1.5999999 
-0.239999995 3.3599999 -1.51999998 
-0.239999995 3.43999982 -1.5999999 
-0.239999995 3.43999982 -1.51999998 
-0.319999993 3.3599999 -1.43999994 
-0.319999993 3.3599999 -1.36000001 
-0.319999993 3.43999982 -1.43999994 
-0.319999993 3.43999982 -1.36000001 
-0.239999995 3.3599999 -1.43999994 
-0.239999995 3.3599999 -1.36000001 
-0.239999995 3.43999982 -1.43999994 
-0.239999995 3.43999982 -1.36000001 
-0.239999995 3.51999998 -2.48000002 
-0.239999995 3.5999999 -2.48000002 
-0.319999993 3.51999998 -2.39999986 
-0.319999993 3.51999998 -2.31999993 
-0.319999993 3.5999999 -2.39999986 
-0.319999993 3.5999999 -2.31999993 
-0.239999995 3.51999998 -2.39999986 
-0.239999995 3.51999998 -2.31999993 
-0.239999995 3.5999999 -2.39999986 
-0.239999995 3.5999999 -2.31999993 
-0.319999993 3.51999998 -2.24000001 
-0.319999993 3.51999998 -2.15999985 
-0.319999993 3.5999999 -2.24000001 
-0.319999993 3.5999999 -2.15999985 
-0.239999995 3.51999998 -2.24000001 
-0.239999995 3.51999998 -2.15999985 
-0.239999995 3.5999999 -2.24000001 
-0.239999995 3.5999999 -2.15999985 
-0.319999993 3.51999998 -2.07999992 
-0.319999993 3.51999998 -2 
-0.319999993 3.5999999 -2.07999992 
-0.319999993 3.5999999 -2 
-0.239999995 3.51999998 -2.07999992 
-0.239999995 3.51999998 -2 
-0.239999995 3.5999999 -2.07999992 
-0.239999995 3.5999999 -2 
-0.319999993 3.51999998 -1.91999996 
-0.319999993 3.51999998 -1.83999991 
-0.319999993 3.5999999 -1.91999996 
-0.319999993 3.5999999 -1.83999991 
-0.239999995 3.51999998 -1.91999996 
-0.239999995 3.51999998 -1.83999991 
-0.239999995 3.5999999 -1.91999996 
-0.239999995 3.5999999 -1.83999991 
-0.319999993 3.51999998 -1.75999999 
-0.319999993 3.51999998 -1.67999995 
-0.319999993 3.5999999 -1.75999999 
-0.319999993 3.5999999 -1.67999995 
-0.239999995 3.51999998 -1.75999999 
-0.239999995 3.51999998 -1.67999995 
-0.239999995 3.5999999 -1.75999999 
-0.239999995 3.5999999 -1.67999995 
-0.319999993 3.51999998 -1.5999999 
-0.319999993 3.51999998 -1.51999998 
-0.319999993 3.5999999 -1.5999999 
-0.319999993 3.5999999 -1.51999998 
-0.239999995 3.51999998 -1.5999999 
-0.239999995 3.51999998 -1.51999998 
-0.239999995 3.5999999 -1.5999999 
-0.239999995 3.5999999 -1.51999998 
-0.319999993 3.51999998 -1.43999994 
-0.319999993 3.51999998 -1.36000001 
-0.319999993 3.5999999 -1.43999994 
-0.319999993 3.5999999 -1.36000001 
-0.239999995 3.51999998 -1.43999994 
-0.239999995 3.51999998 -1.36000001 
-0.239999995 3.5999999 -1.43999994 
-0.239999995 3.5999999 -1.36000001 
-0.239999995 3.67999983 -2.48000002 
-0.239999995 3.75999999 -2.48000002 
-0.319999993 3.67999983 -2.39999986 
-0.319999993 3.67999983 -2.31999993 
-0.319999993 3.75999999 -2.39999986 
-0.319999993 3.75999999 -2.31999993 
-0.239999995 3.67999983 -2.39999986 
-0.239999995 3.67999983 -2.31999993 
-0.239999995 3.75999999 -2.39999986 
-0.239999995 3.75999999 -2.31999993 
-0.319999993 3.67999983 -2.24000001 
-0.319999993 3.67999983 -2.15999985 
-0.319999993 3.75999999 -2.24000001 
-0.319999993 3.75999999 -2.15999985 
-0.239999995 3.67999983 -2.24000001 
-0.239999995 3.67999983 -2.15999985 
-0.239999995 3.75999999 -2.24000001 
-0.239999995 3.75999999 -2.15999985 
-0.319999993 3.67999983 -2.07999992 
-0.319999993 3.67999983 -2 
-0.319999993 3.75999999 -2.07999992 
-0.319999993 3.75999999 -2 
-0.239999995 3.67999983 -2.07999992 
-0.239999995 3.67999983 -2 
-0.239999995 3.75999999 -2.07999992 
-0.239999995 3.75999999 -2 
-0.319999993 3.67999983 -1.91999996 
-0.319999993 3.67999983 -1.83999991 
-0.319999993 3.75999999 -1.91999996 
-0.319999993 3.75999999 -1.83999991 
-0.239999995 3.67999983 -1.91999996 
-0.239999995 3.67999983 -1.83999991 
-0.239999995 3.75999999 -1.91999996 
-0.239999995 3.75999999 -1.83999991 
-0.319999993 3.67999983 -1.75999999 
-0.319999993 3.67999983 -1.67999995 
-0.319999993 3.75999999 -1.75999999 
-0.319999993 3.75999999 -1.67999995 
-0.239999995 3.67999983 -1.75999999 
-0.239999995 3.67999983 -1.67999995 
-0.239999995 3.75999999 -1.75999999 
-0.239999995 3.75999999 -1.67999995 
-0.319999993 3.67999983 -1.5999999 
-0.319999993 3.67999983 -1.51999998 
-0.319999993 3.75999999 -1.5999999 
-0.319999993 3.75999999 -1.51999998 
-0.239999995 3.67999983 -1.5999999 
-0.239999995 3.67999983 -1.51999998 
-0.239999995 3.75999999 -1.5999999 
-0.239999995 3.75999999 -1.51999998 
-0.319999993 3.67999983 -1.43999994 
-0.319999993 3.67999983 -1.36000001 
-0.319999993 3.75999999 -1.43999994 
-0.319999993 3.75999999 -1.36000001 
-0.239999995 3.67999983 -1.43999994 
-0.239999995 3.67999983 -1.36000001 
-0.239999995 3.75999999 -1.43999994 
-0.239999995 3.75999999 -1.36000001 
-0.159999996 2.79999995 -2.48000002 
-0.0799999982 2.79999995 -2.48000002 
-0.159999996 2.79999995 -2.39999986 
-0.159999996 2.79999995 -2.31999993 
-0.0799999982 2.79999995 -2.39999986 
-0.0799999982 2.79999995 -2.31999993 
-0.159999996 2.79999995 -2.24000001 
-0.159999996 2.79999995 -2.15999985 
-0.0799999982 2.79999995 -2.24000001 
-0.0799999982 2.79999995 -2.15999985 
-0.159999996 2.79999995 -2.07999992 
-0.159999996 2.79999995 -2 
-0.0799999982 2.79999995 -2.07999992 
-0.0799999982 2.79999995 -2 
-0.159999996 2.79999995 -1.91999996 
-0.159999996 2.79999995 -1.83999991 
-0.0799999982 2.79999995 -1.91999996 
-0.0799999982 2.79999995 -1.83999991 
-0.159999996 2.79999995 -1.75999999 
-0.159999996 2.79999995 -1.67999995 
-0.0799999982 2.79999995 -1.75999999 
-0.0799999982 2.79999995 -1.67999995 
-0.159999996 2.79999995 -1.5999999 
-0.159999996 2.79999995 -1.51999998 
-0.0799999982 2.79999995 -1.5999999 
-0.0799999982 2.79999995 -1.51999998 
-0.159999996 2.79999995 -1.43999994 
-0.159999996 2.79999995 -1.36000001 
-0.0799999982 2.79999995 -1.43999994 
-0.0799999982 2.79999995 -1.36000001 
-0.159999996 2.87999988 -2.48000002 
-0.159999996 2.96000004 -2.48000002 
-0.0799999982 2.87999988 -2.48000002 
-0.0799999982 2.96000004 -2.48000002 
-0.159999996 2.87999988 -2.39999986 
-0.159999996 2.87999988 -2.31999993 
-0.159999996 2.96000004 -2.39999986 
-0.159999996 2.96000004 -2.31999993 
-0.0799999982 2.87999988 -2.39999986 
-0.0799999982 2.87999988 -2.31999993 
-0.0799999982 2.96000004 -2.39999986 
-0.0799999982 2.96000004 -2.31999993 
-0.159999996 2.87999988 -2.24000001 
-0.159999996 2.87999988 -2.15999985 
-0.159999996 2.96000004 -2.24000001 
-0.159999996 2.96000004 -2.15999985 
-0.0799999982 2.87999988 -2.24000001 
-0.0799999982 2.87999988 -2.15999985 
-0.0799999982 2.96000004 -2.24000001 
-0.0799999982 2.96000004 -2.15999985 
-0.159999996 2.87999988 -2.07999992 
-0.159999996 2.87999988 -2 
-0.159999996 2.96000004 -2.07999992 
-0.159999996 2.96000004 -2 
-0.0799999982 2.87999988 -2.07999992 
-0.0799999982 2.87999988 -2 
-0.0799999982 2.96000004 -2.07999992 
-0.0799999982 2.96000004 -2 
-0.159999996 2.87999988 -1.91999996 
-0.159999996 2.87999988 -1.83999991 
-0.159999996 2.96000004 -1.91999996 
-0.159999996 2.96000004 -1.83999991 
-0.0799999982 2.87999988 -1.91999996 
-0.0799999982 2.87999988 -1.83999991 
-0.0799999982 2.96000004 -1.91999996 
-0.0799999982 2.96000004 -1.83999991 
-0.159999996 2.87999988 -1.75999999 
-0.159999996 2.87999988 -1.67999995 
-0.159999996 2.96000004 -1.75999999 
-0.159999996 2.96000004 -1.67999995 
-0.0799999982 2.87999988 -1.75999999 
-0.0799999982 2.87999988 -1.67999995 
-0.0799999982 2.96000004 -1.75999999 
-0.0799999982 2.96000004 -1.67999995 
-0.159999996 2.87999988 -1.5999999 
-0.159999996 2.87999988 -1.51999998 
-0.159999996 2.96000004 -1.5999999 
-0.159999996 2.96000004 -1.51999998 
-0.0799999982 2.87999988 -1.5999999 
-0.0799999982 2.87999988 -1.51999998 
-0.0799999982 2.96000004 -1.5999999 
-0.0799999982 2.96000004 -1.51999998 
-0.159999996 2.87999988 -1.43999994 
-0.159999996 2.87999988 -1.36000001 
-0.159999996 2.96000004 -1.43999994 
-0.159999996 2.96000004 -1.36000001 
-0.0799999982 2.87999988 -1.43999994 
-0.0799999982 2.87999988 -1.36000001 
-0.0799999982 2.96000004 -1.43999994 
-0.0799999982 2.96000004 -1.36000001 
-0.159999996 3.03999996 -2.48000002 
-0.159999996 3.11999989 -2.48000002 
-0.0799999982 3.03999996 -2.48000002 
-0.0799999982 3.11999989 -2.48000002 
-0.159999996 3.03999996 -2.39999986 
-0.159999996 3.03999996 -2.31999993 
-0.159999996 3.11999989 -2.39999986 
-0.159999996 3.11999989 -2.31999993 
-0.0799999982 3.03999996 -2.39999986 
-0.0799999982 3.03999996 -2.31999993 
-0.0799999982 3.11999989 -2.39999986 
-0.0799999982 3.11999989 -2.31999993 
-0.159999996 3.03999996 -2.24000001 
-0.159999996 3.03999996 -2.15999985 
-0.159999996 3.11999989 -2.24000001 
-0.159999996 3.11999989 -2.15999985 
-0.0799999982 3.03999996 -2.24000001 
-0.0799999982 3.03999996 -2.15999985 
-0.0799999982 3.11999989 -2.24000001 
-0.0799999982 3.11999989 -2.15999985 
-0.159999996 3.03999996 -2.07999992 
-0.159999996 3.03999996 -2 
-0.159999996 3.11999989 -2.07999992 
-0.159999996 3.11999989 -2 
-0.0799999982 3.03999996 -2.07999992 
-0.0799999982 3.03999996 -2 
-0.0799999982 3.11999989 -2.07999992 
-0.0799999982 3.11999989 -2 
-0.159999996 3.03999996 -1.91999996 
-0.159999996 3.03999996 -1.83999991 
-0.159999996 3.11999989 -1.91999996 
-0.159999996 3.11999989 -1.83999991 
-0.0799999982 3.03999996 -1.91999996 
-0.0799999982 3.03999996 -1.83999991 
-0.0799999982 3.11999989 -1.91999996 
-0.0799999982 3.11999989 -1.83999991 
-0.159999996 3.03999996 -1.75999999 
-0.159999996 3.03999996 -1.67999995 
-0.159999996 3.11999989 -1.75999999 
-0.159999996 3.11999989 -1.67999995 
-0.0799999982 3.03999996 -1.75999999 
-0.0799999982 3.03999996 -1.67999995 
-0.0799999982 3.11999989 -1.75999999 
-0.0799999982 3.11999989 -1.67999995 
-0.159999996 3.03999996 -1.5999999 
-0.159999996 3.03999996 -1.51999998 
-0.159999996 3.11999989 -1.5999999 
-0.159999996 3.11999989 -1.51999998 
-0.0799999982 3.03999996 -1.5999999 
-0.0799999982 3.03999996 -1.51999998 
-0.0799999982 3.11999989 -1.5999999 
-0.0799999982 3.11999989 -1.51999998 
-0.159999996 3.03999996 -1.43999994 
-0.159999996 3.03999996 -1.36000001 
-0.159999996 3.11999989 -1.43999994 
-0.159999996 3.11999989 -1.36000001 
-0.0799999982 3.03999996 -1.43999994 
-0.0799999982 3.03999996 -1.36000001 
-0.0799999982 3.11999989 -1.43999994 
-0.0799999982 3.11999989 -1.36000001 
-0.159999996 3.19999981 -2.48000002 
-0.159999996 3.27999997 -2.48000002 
-0.0799999982 3.19999981 -2.48000002 
-0.0799999982 3.27999997 -2.48000002 
-0.159999996 3.19999981 -2.39999986 
-0.159999996 3.19999981 -2.31999993 
-0.159999996 3.27999997 -2.39999986 
-0.159999996 3.27999997 -2.31999993 
-0.0799999982 3.19999981 -2.39999986 
-0.0799999982 3.19999981 -2.31999993 
-0.0799999982 3.27999997 -2.39999986 
-0.0799999982 3.27999997 -2.31999993 
-0.159999996 3.19999981 -2.24000001 
-0.159999996 3.19999981 -2.15999985 
-0.159999996 3.27999997 -2.24000001 
-0.159999996 3.27999997 -2.15999985 
-0.0799999982 3.19999981 -2.24000001 
-0.0799999982 3.19999981 -2.15999985 
-0.0799999982 3.27999997 -2.24000001 
-0.0799999982 3.27999997 -2.15999985 
-0.159999996 3.19999981 -2.07999992 
-0.159999996 3.19999981 -2 
-0.159999996 3.27999997 -2.07999992 
-0.159999996 3.27999997 -2 
-0.0799999982 3.19999981 -2.07999992 
-0.0799999982 3.19999981 -2 
-0.0799999982 3.27999997 -2.07999992 
-0.0799999982 3.27999997 -2 
-0.159999996 3.19999981 -1.91999996 
-0.159999996 3.19999981 -1.83999991 
-0.159999996 3.27999997 -1.91999996 
-0.159999996 3.27999997 -1.83999991 
-0.0799999982 3.19999981 -1.91999996 
-0.0799999982 3.19999981 -1.83999991 
-0.0799999982 3.27999997 -1.91999996 
-0.0799999982 3.27999997 -1.83999991 
-0.159999996 3.19999981 -1.75999999 
-0.159999996 3.19999981 -1.67999995 
-0.159999996 3.27999997 -1.75999999 
-0.159999996 3.27999997 -1.67999995 
-0.0799999982 3.19999981 -1.75999999 
-0.0799999982 3.19999981 -1.67999995 
-0.0799999982 3.27999997 -1.75999999 
-0.0799999982 3.27999997 -1.67999995 
-0.159999996 3.19999981 -1.5999999 
-0.159999996 3.19999981 -1.51999998 
-0.159999996 3.27999997 -1.5999999 
-0.159999996 3.27999997 -1.51999998 
-0.0799999982 3.19999981 -1.5999999 
-0.0799999982 3.19999981 -1.51999998 
-0.0799999982 3.27999997 -1.5999999 
-0.0799999982 3.27999997 -1.51999998 
-0.159999996 3.19999981 -1.43999994 
-0.159999996 3.19999981 -1.36000001 
-0.159999996 3.27999997 -1.43999994 
-0.159999996 3.27999997 -1.36000001 
-0.0799999982 3.19999981 -1.43999994 
-0.0799999982 3.19999981 -1.36000001 
-0.0799999982 3.27999997 -1.43999994 
-0.0799999982 3.27999997 -1.36000001 
-0.159999996 3.3599999 -2.48000002 
-0.159999996 3.43999982 -2.48000002 
-0.0799999982 3.3599999 -2.48000002 
-0.0799999982 3.43999982 -2.48000002 
-0.159999996 3.3599999 -2.39999986 
-0.159999996 3.3599999 -2.31999993 
-0.159999996 3.43999982 -2.39999986 
-0.159999996 3.43999982 -2.31999993 
-0.0799999982 3.3599999 -2.39999986 
-0.0799999982 3.3599999 -2.31999993 
-0.0799999982 3.43999982 -2.39999986 
-0.0799999982 3.43999982 -2.31999993 
-0.159999996 3.3599999 -2.24000001 
-0.159999996 3.3599999 -2.15999985 
-0.159999996 3.43999982 -2.24000001 
-0.159999996 3.43999982 -2.15999985 
-0.0799999982 3.3599999 -2.24000001 
-0.0799999982 3.3599999 -2.15999985 
-0.0799999982 3.43999982 -2.24000001 
-0.0799999982 3.43999982 -2.15999985 
-0.159999996 3.3599999 -2.07999992 
-0.159999996 3.3599999 -2 
-0.159999996 3.43999982 -2.07999992 
-0.159999996 3.43999982 -2 
-0.0799999982 3.3599999 -2.07999992 
-0.0799999982 3.3599999 -2 
-0.0799999982 3.43999982 -2.07999992 
-0.0799999982 3.43999982 -2 
-0.159999996 3.3599999 -1.91999996 
-0.159999996 3.3599999 -1.83999991 
-0.159999996 3.43999982 -1.91999996 
-0.159999996 3.43999982 -1.83999991 
-0.0799999982 3.3599999 -1.91999996 
-0.0799999982 3.3599999 -1.83999991 
-0.0799999982 3.43999982 -1.91999996 
-0.0799999982 3.43999982 -1.83999991 
-0.159999996 3.3599999 -1.75999999 
-0.159999996 3.3599999 -1.67999995 
-0.159999996 3.43999982 -1.75999999 
-0.159999996 3.43999982 -1.67999995 
-0.0799999982 3.3599999 -1.75999999 
-0.0799999982 3.3599999 -1.67999995 
-0.0799999982 3.43999982 -1.75999999 
-0.0799999982 3.43999982 -1.67999995 
-0.159999996 3.3599999 -1.5999999 
-0.159999996 3.3599999 -1.51999998 
-0.159999996 3.43999982 -1.5999999 
-0.159999996 3.43999982 -1.51999998 
-0.0799999982 3.3599999 -1.5999999 
-0.0799999982 3.3599999 -1.51999998 
-0.0799999982 3.43999982 -1.5999999 
-0.0799999982 3.43999982 -1.51999998 
-0.159999996 3.3599999 -1.43999994 
-0.159999996 3.3599999 -1.36000001 
-0.159999996 3.43999982 -1.43999994 
-0.159999996 3.43999982 -1.36000001 
-0.0799999982 3.3599999 -1.43999994 
-0.0799999982 3.3599999 -1.36000001 
-0.0799999982 3.43999982 -1.43999994 
-0.0799999982 3.43999982 -1.36000001 
-0.159999996 3.51999998 -2.48000002 
-0.159999996 3.5999999 -2.48000002 
-0.0799999982 3.51999998 -2.48000002 
-0.0799999982 3.5999999 -2.48000002 
-0.159999996 3.51999998 -2.39999986 
-0.159999996 3.51999998 -2.31999993 
-0.159999996 3.5999999 -2.39999986 
-0.159999996 3.5999999 -2.31999993 
-0.0799999982 3.51999998 -2.39999986 
-0.0799999982 3.51999998 -2.31999993 
-0.0799999982 3.5999999 -2.39999986 
-0.0799999982 3.5999999 -2.31999993 
-0.159999996 3.51999998 -2.24000001 
-0.159999996 3.51999998 -2.15999985 
-0.159999996 3.5999999 -2.24000001 
-0.159999996 3.5999999 -2.15999985 
-0.0799999982 3.51999998 -2.24000001 
-0.0799999982 3.51999998 -2.15999985 
-0.0799999982 3.5999999 -2.24000001 
-0.0799999982 3.5999999 -2.15999985 
-0.159999996 3.51999998 -2.07999992 
-0.159999996 3.51999998 -2 
-0.159999996 3.5999999 -2.07999992 
-0.159999996 3.5999999 -2 
-0.0799999982 3.51999998 -2.07999992 
-0.0799999982 3.51999998 -2 
-0.0799999982 3.5999999 -2.07999992 
-0.0799999982 3.5999999 -2 
-0.159999996 3.51999998 -1.91999996 
-0.159999996 3.51999998 -1.83999991 
-0.159999996 3.5999999 -1.91999996 
-0.159999996 3.5999999 -1.83999991 
-0.0799999982 3.51999998 -1.91999996 
-0.0799999982 3.51999998 -1.83999991 
-0.0799999982 3.5999999 -1.91999996 
-0.0799999982 3.5999999 -1.83999991 
-0.159999996 3.51999998 -1.75999999 
-0.159999996 3.51999998 -1.67999995 
-0.159999996 3.5999999 -1.75999999 
-0.159999996 3.5999999 -1.67999995 
-0.0799999982 3.51999998 -1.75999999 
-0.0799999982 3.51999998 -1.67999995 
-0.0799999982 3.5999999 -1.75999999 
-0.0799999982 3.5999999 -1.67999995 
-0.159999996 3.51999998 -1.5999999 
-0.159999996 3.51999998 -1.51999998 
-0.159999996 3.5999999 -1.5999999 
-0.159999996 3.5999999 -1.51999998 
-0.0799999982 3.51999998 -1.5999999 
-0.0799999982 3.51999998 -1.51999998 
-0.0799999982 3.5999999 -1.5999999 
-0.0799999982 3.5999999 -1.51999998 
-0.159999996 3.51999998 -1.43999994 
-0.159999996 3.51999998 -1.36000001 
-0.159999996 3.5999999 -1.43999994 
-0.159999996 3.5999999 -1.36000001 
-0.0799999982 3.51999998 -1.43999994 
-0.0799999982 3.51999998 -1.36000001 
-0.0799999982 3.5999999 -1.43999994 
-0.0799999982 3.5999999 -1.36000001 
-0.159999996 3.67999983 -2.48000002 
-0.159999996 3.75999999 -2.48000002 
-0.0799999982 3.67999983 -2.48000002 
-0.0799999982 3.75999999 -2.48000002 
-0.159999996 3.67999983 -2.39999986 
-0.159999996 3.67999983 -2.31999993 
-0.159999996 3.75999999 -2.39999986 
-0.159999996 3.75999999 -2.31999993 
-0.0799999982 3.67999983 -2.39999986 
-0.0799999982 3.67999983 -2.31999993 
-0.0799999982 3.75999999 -2.39999986 
-0.0799999982 3.75999999 -2.31999993 
-0.159999996 3.67999983 -2.24000001 
-0.159999996 3.67999983 -2.15999985 
-0.159999996 3.75999999 -2.24000001 
-0.159999996 3.75999999 -2.15999985 
-0.0799999982 3.67999983 -2.24000001 
-0.0799999982 3.67999983 -2.15999985 
-0.0799999982 3.75999999 -2.24000001 
-0.0799999982 3.75999999 -2.15999985 
-0.159999996 3.67999983 -2.07999992 
-0.159999996 3.67999983 -2 
-0.159999996 3.75999999 -2.07999992 
-0.159999996 3.75999999 -2 
-0.0799999982 3.67999983 -2.07999992 
-0.0799999982 3.67999983 -2 
-0.0799999982 3.75999999 -2.07999992 
-0.0799999982 3.75999999 -2 
-0.159999996 3.67999983 -1.91999996 
-0.159999996 3.67999983 -1.83999991 
-0.159999996 3.75999999 -1.91999996 
-0.159999996 3.75999999 -1.83999991 
-0.0799999982 3.67999983 -1.91999996 
-0.0799999982 3.67999983 -1.83999991 
-0.0799999982 3.75999999 -1.91999996 
-0.0799999982 3.75999999 -1.83999991 
-0.159999996 3.67999983 -1.75999999 
-0.159999996 3.67999983 -1.67999995 
-0.159999996 3.75999999 -1.75999999 
-0.159999996 3.75999999 -1.67999995 
-0.0799999982 3.67999983 -1.75999999 
-0.0799999982 3.67999983 -1.67999995 
-0.0799999982 3.75999999 -1.75999999 
-0.0799999982 3.75999999 -1.67999995 
-0.159999996 3.67999983 -1.5999999 
-0.159999996 3.67999983 -1.51999998 
-0.159999996 3.75999999 -1.5999999 
-0.159999996 3.75999999 -1.51999998 
-0.0799999982 3.67999983 -1.5999999 
-0.0799999982 3.67999983 -1.51999998 
-0.0799999982 3.75999999 -1.5999999 
-0.0799999982 3.75999999 -1.51999998 
-0.159999996 3.67999983 -1.43999994 
-0.159999996 3.67999983 -1.36000001 
-0.159999996 3.75999999 -1.43999994 
-0.159999996 3.75999999 -1.36000001 
-0.0799999982 3.67999983 -1.43999994 
-0.0799999982 3.67999983 -1.36000001 
-0.0799999982 3.75999999 -1.43999994 
-0.0799999982 3.75999999 -1.36000001 
-1.27999997 2.79999995 -1.27999997 
-1.27999997 2.79999995 -1.19999993 
-1.19999993 2.79999995 -1.27999997 
-1.19999993 2.79999995 -1.19999993 
-1.27999997 2.79999995 -1.12 
-1.27999997 2.79999995 -1.03999996 
-1.19999993 2.79999995 -1.12 
-1.19999993 2.79999995 -1.03999996 
-1.27999997 2.79999995 -0.959999979 
-1.27999997 2.79999995 -0.879999995 
-1.19999993 2.79999995 -0.959999979 
-1.19999993 2.79999995 -0.879999995 
-1.27999997 2.79999995 -0.799999952 
-1.27999997 2.79999995 -0.719999969 
-1.19999993 2.79999995 -0.799999952 
-1.19999993 2.79999995 -0.719999969 
-1.27999997 2.79999995 -0.639999986 
-1.27999997 2.79999995 -0.560000002 
-1.19999993 2.79999995 -0.639999986 
-1.19999993 2.79999995 -0.560000002 
-1.27999997 2.79999995 -0.479999989 
-1.27999997 2.79999995 -0.399999976 
-1.19999993 2.79999995 -0.479999989 
-1.19999993 2.79999995 -0.399999976 
-1.27999997 2.79999995 -0.319999993 
-1.27999997 2.79999995 -0.239999995 
-1.19999993 2.79999995 -0.319999993 
-1.19999993 2.79999995 -0.239999995 
-1.27999997 2.79999995 -0.159999996 
-1.27999997 2.79999995 -0.0799999982 
-1.19999993 2.79999995 -0.159999996 
-1.19999993 2.79999995 -0.0799999982 
-1.27999997 2.87999988 -1.27999997 
-1.27999997 2.87999988 -1.19999993 
-1.27999997 2.96000004 -1.27999997 
-1.27999997 2.96000004 -1.19999993 
-1.19999993 2.87999988 -1.27999997 
-1.19999993 2.87999988 -1.19999993 
-1.19999993 2.96000004 -1.27999997 
-1.19999993 2.96000004 -1.19999993 
-1.27999997 2.87999988 -1.12 
-1.27999997 2.87999988 -1.03999996 
-1.27999997 2.96000004 -1.12 
-1.27999997 2.96000004 -1.03999996 
-1.19999993 2.87999988 -1.12 
-1.19999993 2.87999988 -1.03999996 
-1.19999993 2.96000004 -1.12 
-1.19999993 2.96000004 -1.03999996 
-1.27999997 2.87999988 -0.959999979 
-1.27999997 2.87999988 -0.879999995 
-1.27999997 2.96000004 -0.959999979 
-1.27999997 2.96000004 -0.879999995 
-1.19999993 2.87999988 -0.959999979 
-1.19999993 2.87999988 -0.879999995 
-1.19999993 2.96000004 -0.959999979 
-1.19999993 2.96000004 -0.879999995 
-1.27999997 2.87999988 -0.799999952 
-1.27999997 2.87999988 -0.719999969 
-1.27999997 2.96000004 -0.799999952 
-1.27999997 2.96000004 -0.719999969 
-1.19999993 2.87999988 -0.799999952 
-1.19999993 2.87999988 -0.719999969 
-1.19999993 2.96000004 -0.799999952 
-1.19999993 2.96000004 -0.719999969 
-1.27999997 2.87999988 -0.639999986 
-1.27999997 2.87999988 -0.560000002 
-1.27999997 2.96000004 -0.639999986 
-1.27999997 2.96000004 -0.560000002 
-1.19999993 2.87999988 -0.639999986 
-1.19999993 2.87999988 -0.560000002 
-1.19999993 2.96000004 -0.639999986 
-1.19999993 2.96000004 -0.560000002 
-1.27999997 2.87999988 -0.479999989 
-1.27999997 2.87999988 -0.399999976 
-1.27999997 2.96000004 -0.479999989 
-1.27999997 2.96000004 -0.399999976 
-1.19999993 2.87999988 -0.479999989 
-1.19999993 2.87999988 -0.399999976 
-1.19999993 2.96000004 -0.479999989 
-1.19999993 2.96000004 -0.399999976 
-1.27999997 2.87999988 -0.319999993 
-1.27999997 2.87999988 -0.239999995 
-1.27999997 2.96000004 -0.319999993 
-1.27999997 2.96000004 -0.239999995 
-1.19999993 2.87999988 -0.319999993 
-1.19999993 2.87999988 -0.239999995 
-1.19999993 2.96000004 -0.319999993 
-1.19999993 2.96000004 -0.239999995 
-1.27999997 2.87999988 -0.159999996 
-1.27999997 2.87999988 -0.0799999982 
-1.27999997 2.96000004 -0.159999996 
-1.27999997 2.96000004 -0.0799999982 
-1.19999993 2.87999988 -0.159999996 
-1.19999993 2.87999988 -0.0799999982 
-1.19999993 2.96000004 -0.159999996 
-1.19999993 2.96000004 -0.0799999982 
-1.27999997 3.03999996 -1.27999997 
-1.27999997 3.03999996 -1.19999993 
-1.27999997 3.11999989 -1.27999997 
-1.27999997 3.11999989 -1.19999993 
-1.19999993 3.03999996 -1.27999997 
-1.19999993 3.03999996 -1.19999993 
-1.19999993 3.11999989 -1.27999997 
-1.19999993 3.11999989 -1.19999993 
-1.27999997 3.03999996 -1.12 
-1.27999997 3.03999996 -1.03999996 
-1.27999997 3.11999989 -1.12 
-1.27999997 3.11999989 -1.03999996 
-1.19999993 3.03999996 -1.12 
-1.19999993 3.03999996 -1.03999996 
-1.19999993 3.11999989 -1.12 
-1.19999993 3.11999989 -1.03999996 
-1.27999997 3.03999996 -0.959999979 
-1.27999997 3.03999996 -0.879999995 
-1.27999997 3.11999989 -0.959999979 
-1.27999997 3.11999989 -0.879999995 
-1.19999993 3.03999996 -0.959999979 
-1.19999993 3.03999996 -0.879999995 
-1.19999993 3.11999989 -0.959999979 
-1.19999993 3.11999989 -0.879999995 
-1.27999997 3.03999996 -0.799999952 
-1.27999997 3.03999996 -0.719999969 
-1.27999997 3.11999989 -0.799999952 
-1.27999997 3.11999989 -0.719999969 
-1.19999993 3.03999996 -0.799999952 
-1.19999993 3.03999996 -0.719999969 
-1.19999993 3.11999989 -0.799999952 
-1.19999993 3.11999989 -0.719999969 
-1.27999997 3.03999996 -0.639999986 
-1.27999997 3.03999996 -0.560000002 
-1.27999997 3.11999989 -0.639999986 
-1.27999997 3.11999989 -0.560000002 
-1.19999993 3.03999996 -0.639999986 
-1.19999993 3.03999996 -0.560000002 
-1.19999993 3.11999989 -0.639999986 
-1.19999993 3.11999989 -0.560000002 
-1.27999997 3.03999996 -0.479999989 
-1.27999997 3.03999996 -0.399999976 
-1.27999997 3.11999989 -0.479999989 
-1.27999997 3.11999989 -0.399999976 
-1.19999993 3.03999996 -0.479999989 
-1.19999993 3.03999996 -0.399999976 
-1.19999993 3.11999989 -0.479999989 
-1.19999993 3.11999989 -0.399999976 
-1.27999997 3.03999996 -0.319999993 
-1.27999997 3.03999996 -0.239999995 
-1.27999997 3.11999989 -0.319999993 
-1.27999997 3.11999989 -0.239999995 
-1.19999993 3.03999996 -0.319999993 
-1.19999993 3.03999996 -0.239999995 
-1.19999993 3.11999989 -0.319999993 
-1.19999993 3.11999989 -0.239999995 
-1.27999997 3.03999996 -0.159999996 
-1.27999997 3.03999996 -0.0799999982 
-1.27999997 3.11999989 -0.159999996 
-1.27999997 3.11999989 -0.0799999982 
-1.19999993 3.03999996 -0.159999996 
-1.19999993 3.03999996 -0.0799999982 
-1.19999993 3.11999989 -0.159999996 
-1.19999993 3.11999989 -0.0799999982 
-1.27999997 3.19999981 -1.27999997 
-1.27999997 3.19999981 -1.19999993 
-1.27999997 3.27999997 -1.27999997 
-1.27999997 3.27999997 -1.19999993 
-1.19999993 3.19999981 -1.27999997 
-1.19999993 3.19999981 -1.19999993 
-1.19999993 3.27999997 -1.27999997 
-1.19999993 3.27999997 -1.19999993 
-1.27999997 3.19999981 -1.12 
-1.27999997 3.19999981 -1.03999996 
-1.27999997 3.27999997 -1.12 
-1.27999997 3.27999997 -1.03999996 
-1.19999993 3.19999981 -1.12 
-1.19999993 3.19999981 -1.03999996 
-1.19999993 3.27999997 -1.12 
-1.19999993 3.27999997 -1.03999996 
-1.27999997 3.19999981 -0.959999979 
-1.27999997 3.19999981 -0.879999995 
-1.27999997 3.27999997 -0.959999979 
-1.27999997 3.27999997 -0.879999995 
-1.19999993 3.19999981 -0.959999979 
-1.19999993 3.19999981 -0.879999995 
-1.19999993 3.27999997 -0.959999979 
-1.19999993 3.27999997 -0.879999995 
-1.27999997 3.19999981 -0.799999952 
-1.27999997 3.19999981 -0.719999969 
-1.27999997 3.27999997 -0.799999952 
-1.27999997 3.27999997 -0.719999969 
-1.19999993 3.19999981 -0.799999952 
-1.19999993 3.19999981 -0.719999969 
-1.19999993 3.27999997 -0.799999952 
-1.19999993 3.27999997 -0.719999969 
-1.27999997 3.19999981 -0.639999986 
-1.27999997 3.19999981 -0.560000002 
-1.27999997 3.27999997 -0.639999986 
-1.27999997 3.27999997 -0.560000002 
-1.19999993 3.19999981 -0.639999986 
-1.19999993 3.19999981 -0.560000002 
-1.19999993 3.27999997 -0.639999986 
-1.19999993 3.27999997 -0.560000002 
-1.27999997 3.19999981 -0.479999989 
-1.27999997 3.19999981 -0.399999976 
-1.27999997 3.27999997 -0.479999989 
-1.27999997 3.27999997 -0.399999976 
-1.19999993 3.19999981 -0.479999989 
-1.19999993 3.19999981 -0.399999976 
-1.19999993 3.27999997 -0.479999989 
-1.19999993 3.27999997 -0.399999976 
-1.27999997 3.19999981 -0.319999993 
-1.27999997 3.19999981 -0.239999995 
-1.27999997 3.27999997 -0.319999993 
-1.27999997 3.27999997 -0.239999995 
-1.19999993 3.19999981 -0.319999993 
-1.19999993 3.19999981 -0.239999995 
-1.19999993 3.27999997 -0.319999993 
-1.19999993 3.27999997 -0.239999995 
-1.27999997 3.19999981 -0.159999996 
-1.27999997 3.19999981 -0.0799999982 
-1.27999997 3.27999997 -0.159999996 
-1.27999997 3.27999997 -0.0799999982 
-1.19999993 3.19999981 -0.159999996 
-1.19999993 3.19999981 -0.0799999982 
-1.19999993 3.27999997 -0.159999996 
-1.19999993 3.27999997 -0.0799999982 
-1.27999997 3.3599999 -1.27999997 
-1.27999997 3.3599999 -1.19999993 
-1.27999997 3.43999982 -1.27999997 
-1.27999997 3.43999982 -1.19999993 
-1.19999993 3.3599999 -1.27999997 
-1.19999993 3.3599999 -1.19999993 
-1.19999993 3.43999982 -1.27999997 
-1.19999993 3.43999982 -1.19999993 
-1.27999997 3.3599999 -1.12 
-1.27999997 3.3599999 -1.03999996 
-1.27999997 3.43999982 -1.12 
-1.27999997 3.43999982 -1.03999996 
-1.19999993 3.3599999 -1.12 
-1.19999993 3.3599999 -1.03999996 
-1.19999993 3.43999982 -1.12 
-1.19999993 3.43999982 -1.03999996 
-1.27999997 3.3599999 -0.959999979 
-1.27999997 3.3599999 -0.879999995 
-1.27999997 3.43999982 -0.959999979 
-1.27999997 3.43999982 -0.879999995 
-1.19999993 3.3599999 -0.959999979 
-1.19999993 3.3599999 -0.879999995 
-1.19999993 3.43999982 -0.959999979 
-1.19999993 3.43999982 -0.879999995 
-1.27999997 3.3599999 -0.799999952 
-1.27999997 3.3599999 -0.719999969 
-1.27999997 3.43999982 -0.799999952 
-1.27999997 3.43999982 -0.719999969 
-1.19999993 3.3599999 -0.799999952 
-1.19999993 3.3599999 -0.719999969 
-1.19999993 3.43999982 -0.799999952 
-1.19999993 3.43999982 -0.719999969 
-1.27999997 3.3599999 -0.639999986 
-1.27999997 3.3599999 -0.560000002 
-1.27999997 3.43999982 -0.639999986 
-1.27999997 3.43999982 -0.560000002 
-1.19999993 3.3599999 -0.639999986 
-1.19999993 3.3599999 -0.560000002 
-1.19999993 3.43999982 -0.639999986 
-1.19999993 3.43999982 -0.560000002 
-1.27999997 3.3599999 -0.479999989 
-1.27999997 3.3599999 -0.399999976 
-1.27999997 3.43999982 -0.479999989 
-1.27999997 3.43999982 -0.399999976 
-1.19999993 3.3599999 -0.479999989 
-1.19999993 3.3599999 -0.399999976 
-1.19999993 3.43999982 -0.479999989 
-1.19999993 3.43999982 -0.399999976 
-1.27999997 3.3599999 -0.319999993 
-1.27999997 3.3599999 -0.239999995 
-1.27999997 3.43999982 -0.319999993 
-1.27999997 3.43999982 -0.239999995 
-1.19999993 3.3599999 -0.319999993 
-1.19999993 3.3599999 -0.239999995 
-1.19999993 3.43999982 -0.319999993 
-1.19999993 3.43999982 -0.239999995 
-1.27999997 3.3599999 -0.159999996 
-1.27999997 3.3599999 -0.0799999982 
-1.27999997 3.43999982 -0.159999996 
-1.27999997 3.43999982 -0.0799999982 
-1.19999993 3.3599999 -0.159999996 
-1.19999993 3.3599999 -0.0799999982 
-1.19999993 3.43999982 -0.159999996 
-1.19999993 3.43999982 -0.0799999982 
-1.27999997 3.51999998 -1.27999997 
-1.27999997 3.51999998 -1.19999993 
-1.27999997 3.5999999 -1.27999997 
-1.27999997 3.5999999 -1.19999993 
-1.19999993 3.51999998 -1.27999997 
-1.19999993 3.51999998 -1.19999993 
-1.19999993 3.5999999 -1.27999997 
-1.19999993 3.5999999 -1.19999993 
-1.27999997 3.51999998 -1.12 
-1.27999997 3.51999998 -1.03999996 
-1.27999997 3.5999999 -1.12 
-1.27999997 3.5999999 -1.03999996 
-1.19999993 3.51999998 -1.12 
-1.19999993 3.51999998 -1.03999996 
-1.19999993 3.5999999 -1.12 
-1.19999993 3.5999999 -1.03999996 
-1.27999997 3.51999998 -0.959999979 
-1.27999997 3.51999998 -0.879999995 
-1.27999997 3.5999999 -0.959999979 
-1.27999997 3.5999999 -0.879999995 
-1.19999993 3.51999998 -0.959999979 
-1.19999993 3.51999998 -0.879999995 
-1.19999993 3.5999999 -0.959999979 
-1.19999993 3.5999999 -0.879999995 
-1.27999997 3.51999998 -0.799999952 
-1.27999997 3.51999998 -0.719999969 
-1.27999997 3.5999999 -0.799999952 
-1.27999997 3.5999999 -0.719999969 
-1.19999993 3.51999998 -0.799999952 
-1.19999993 3.51999998 -0.719999969 
-1.19999993 3.5999999 -0.799999952 
-1.19999993 3.5999999 -0.719999969 
-1.27999997 3.51999998 -0.639999986 
-1.27999997 3.51999998 -0.560000002 
-1.27999997 3.5999999 -0.639999986 
-1.27999997 3.5999999 -0.560000002 
-1.19999993 3.51999998 -0.639999986 
-1.19999993 3.51999998 -0.560000002 
-1.19999993 3.5999999 -0.639999986 
-1.19999993 3.5999999 -0.560000002 
-1.27999997 3.51999998 -0.479999989 
-1.27999997 3.51999998 -0.399999976 
-1.27999997 3.5999999 -0.479999989 
-1.27999997 3.5999999 -0.399999976 
-1.19999993 3.51999998 -0.479999989 
-1.19999993 3.51999998 -0.399999976 
-1.19999993 3.5999999 -0.479999989 
-1.19999993 3.5999999 -0.399999976 
-1.27999997 3.51999998 -0.319999993 
-1.27999997 3.51999998 -0.239999995 
-1.27999997 3.5999999 -0.319999993 
-1.27999997 3.5999999 -0.239999995 
-1.19999993 3.51999998 -0.319999993 
-1.19999993 3.51999998 -0.239999995 
-1.19999993 3.5999999 -0.319999993 
-1.19999993 3.5999999 -0.239999995 
-1.27999997 3.51999998 -0.159999996 
-1.27999997 3.51999998 -0.0799999982 
-1.27999997 3.5999999 -0.159999996 
-1.27999997 3.5999999 -0.0799999982 
-1.19999993 3.51999998 -0.159999996 
-1.19999993 3.51999998 -0.0799999982 
-1.19999993 3.5999999 -0.159999996 
-1.19999993 3.5999999 -0.0799999982 
-1.27999997 3.67999983 -1.27999997 
-1.27999997 3.67999983 -1.19999993 
-1.27999997 3.75999999 -1.27999997 
-1.27999997 3.75999999 -1.19999993 
-1.19999993 3.67999983 -1.27999997 
-1.19999993 3.67999983 -1.19999993 
-1.19999993 3.75999999 -1.27999997 
-1.19999993 3.75999999 -1.19999993 
-1.27999997 3.67999983 -1.12 
-1.27999997 3.67999983 -1.03999996 
-1.27999997 3.75999999 -1.12 
-1.27999997 3.75999999 -1.03999996 
-1.19999993 3.67999983 -1.12 
-1.19999993 3.67999983 -1.03999996 
-1.19999993 3.75999999 -1.12 
-1.19999993 3.75999999 -1.03999996 
-1.27999997 3.67999983 -0.959999979 
-1.27999997 3.67999983 -0.879999995 
-1.27999997 3.75999999 -0.959999979 
-1.27999997 3.75999999 -0.879999995 
-1.19999993 3.67999983 -0.959999979 
-1.19999993 3.67999983 -0.879999995 
-1.19999993 3.75999999 -0.959999979 
-1.19999993 3.75999999 -0.879999995 
-1.27999997 3.67999983 -0.799999952 
-1.27999997 3.67999983 -0.719999969 
-1.27999997 3.75999999 -0.799999952 
-1.27999997 3.75999999 -0.719999969 
-1.19999993 3.67999983 -0.799999952 
-1.19999993 3.67999983 -0.719999969 
-1.19999993 3.75999999 -0.799999952 
-1.19999993 3.75999999 -0.719999969 
-1.27999997 3.67999983 -0.639999986 
-1.27999997 3.67999983 -0.560000002 
-1.27999997 3.75999999 -0.639999986 
-1.27999997 3.75999999 -0.560000002 
-1.19999993 3.67999983 -0.639999986 
-1.19999993 3.67999983 -0.560000002 
-1.19999993 3.75999999 -0.639999986 
-1.19999993 3.75999999 -0.560000002 
-1.27999997 3.67999983 -0.479999989 
-1.27999997 3.67999983 -0.399999976 
-1.27999997 3.75999999 -0.479999989 
-1.27999997 3.75999999 -0.399999976 
-1.19999993 3.67999983 -0.479999989 
-1.19999993 3.67999983 -0.399999976 
-1.19999993 3.75999999 -0.479999989 
-1.19999993 3.75999999 -0.399999976 
-1.27999997 3.67999983 -0.319999993 
-1.27999997 3.67999983 -0.239999995 
-1.27999997 3.75999999 -0.319999993 
-1.27999997 3.75999999 -0.239999995 
-1.19999993 3.67999983 -0.319999993 
-1.19999993 3.67999983 -0.239999995 
-1.19999993 3.75999999 -0.319999993 
-1.19999993 3.75999999 -0.239999995 
-1.27999997 3.67999983 -0.159999996 
-1.27999997 3.67999983 -0.0799999982 
-1.27999997 3.75999999 -0.159999996 
-1.27999997 3.75999999 -0.0799999982 
-1.19999993 3.67999983 -0.159999996 
-1.19999993 3.67999983 -0.0799999982 
-1.19999993 3.75999999 -0.159999996 
-1.19999993 3.75999999 -0.0799999982 
-1.12 2.79999995 -1.27999997 
-1.12 2.79999995 -1.19999993 
-1.03999996 2.79999995 -1.27999997 
-1.03999996 2.79999995 -1.19999993 
-1.12 2.79999995 -1.12 
-1.12 2.79999995 -1.03999996 
-1.03999996 2.79999995 -1.12 
-1.03999996 2.79999995 -1.03999996 
-1.12 2.79999995 -0.959999979 
-1.12 2.79999995 -0.879999995 
-1.03999996 2.79999995 -0.959999979 
-1.03999996 2.79999995 -0.879999995 
-1.12 2.79999995 -0.799999952 
-1.12 2.79999995 -0.719999969 
-1.03999996 2.79999995 -0.799999952 
-1.03999996 2.79999995 -0.719999969 
-1.12 2.79999995 -0.639999986 
-1.12 2.79999995 -0.560000002 
-1.03999996 2.79999995 -0.639999986 
-1.03999996 2.79999995 -0.560000002 
-1.12 2.79999995 -0.479999989 
-1.12 2.79999995 -0.399999976 
-1.03999996 2.79999995 -0.479999989 
-1.03999996 2.79999995 -0.399999976 
-1.12 2.79999995 -0.319999993 
-1.12 2.79999995 -0.239999995 
-1.03999996 2.79999995 -0.319999993 
-1.03999996 2.79999995 -0.239999995 
-1.12 2.79999995 -0.159999996 
-1.12 2.79999995 -0.0799999982 
-1.03999996 2.79999995 -0.159999996 
-1.03999996 2.79999995 -0.0799999982 
-1.12 2.87999988 -1.27999997 
-1.12 2.87999988 -1.19999993 
-1.12 2.96000004 -1.27999997 
-1.12 2.96000004 -1.19999993 
-1.03999996 2.87999988 -1.27999997 
-1.03999996 2.87999988 -1.19999993 
-1.03999996 2.96000004 -1.27999997 
-1.03999996 2.96000004 -1.19999993 
-1.12 2.87999988 -1.12 
