ply
format ascii 1.0
comment created by gply, a Houdini tool.
comment converted from .[b]geo
comment for more information about Houdini, try:
comment www.sidefx.com
element vertex 1307
property float x
property float y
property float z
element face 0
property list uchar int vertex_indices
end_header
0.78338474 2.40179038 -0.0819751471 
-0.61016643 0.843573868 -1.24261415 
0.722890556 5.66326523 0.528927147 
0.733047307 0.53346318 0.941212296 
0.891179621 4.47420359 0.894207358 
-0.364290059 5.66391706 -0.631526887 
-0.0901345909 3.16271257 -0.456770301 
0.543345451 0.397121996 0.716692209 
0.0940521657 3.6638844 0.773593962 
-0.323037565 0.384435922 -0.415187657 
-0.391238272 2.18715763 0.848457873 
-0.79149127 1.90499961 -0.775851905 
-1.15658653 0.537388504 0.16525802 
1.26739073 1.40317011 0.344903648 
-0.203908816 0.389248967 -0.836696327 
-0.0260744356 2.58416748 0.664188981 
-0.932500601 1.65800989 0.81685555 
-1.13460636 5.55279303 -0.277994335 
0.492463857 1.29451275 -1.2583245 
0.203316867 5.66391563 0.613364458 
0.0400750265 0.622470677 -1.26150894 
1.04856062 4.1725235 0.304216385 
0.734569371 5.47169304 -1.03725076 
0.286509275 0.497783542 1.08780408 
0.582726181 0.38444677 -0.378208727 
0.909758627 5.63130569 0.532693863 
0.878550053 5.66343641 -0.00962235685 
-0.038015753 3.24045086 0.501640439 
0.626811385 1.69841504 -1.04063737 
-0.767945647 3.65027857 0.0301982798 
-1.0181489 0.995646715 0.994675517 
-1.36228871 5.12777901 -0.2227332 
0.231855929 3.31673551 -0.504941344 
-1.14777923 4.57935381 -0.598525643 
0.0282789096 5.26259184 -1.35640419 
0.619789004 4.73220205 -1.193694 
-1.3520757 5.32219934 0.000530757243 
0.538693607 4.6371913 -1.19720316 
-0.880869269 4.61514568 0.980831981 
0.275323361 2.63643622 -0.584586978 
-0.803690434 5.66378641 0.249456853 
0.0910734609 0.384433746 0.331957608 
0.77994895 5.66390133 -0.171690822 
-0.821700156 3.98937607 0.576976478 
0.657386661 2.26281834 0.603745878 
-0.622689724 5.54112196 1.01835299 
0.509109735 5.26974964 1.27436924 
0.490324527 3.28459454 0.211957455 
1.10437131 4.56861782 0.67500037 
-0.658372641 0.431039572 -0.761516333 
0.692942917 5.66389227 0.430909216 
0.421021223 5.33084297 1.27748489 
1.07078433 1.87550938 -0.267802536 
0.104759149 4.82495356 -1.34062886 
-0.174318463 5.06828737 -1.36433768 
-0.0574352071 0.384434462 0.473728895 
0.0453970656 0.384434104 -0.335719079 
-0.934304595 5.27494049 1.0288378 
1.34009457 1.0708164 0.348581195 
-0.578133702 1.32161772 -1.21731269 
0.239925355 0.478008687 1.06148505 
0.1711822 1.72967374 1.162902 
-0.505729914 0.653536081 -1.19291878 
-0.671679258 5.66391659 0.307460099 
0.355266899 3.33755994 0.447651446 
-0.68187201 2.26889324 0.570863187 
-1.22861314 5.17010593 0.673577785 
0.713554442 4.43684721 -1.01569712 
-0.167549774 0.384437084 -0.634677231 
-0.135852262 3.55070376 -0.693958938 
0.207892925 1.01940417 -1.3635428 
0.195934311 0.384432971 0.502551973 
0.334303468 0.902937651 -1.34324574 
-0.734691024 1.50678408 -1.07104456 
0.571826458 2.53971624 0.436246336 
0.712169409 0.386525303 0.402105391 
0.877432644 0.571015596 0.87591064 
0.0849062949 3.28873301 -0.525375962 
-0.879250109 4.09972 0.605491996 
-1.23997641 1.37283218 -0.472126156 
-0.504533291 0.861590743 1.28967571 
-0.103438258 2.84262681 -0.489981353 
0.9158566 2.12307382 0.318120539 
1.0874753 1.03953111 0.904311955 
0.185728043 2.68950939 -0.574253678 
0.936937869 0.490117967 -0.627639174 
-1.19011343 1.62981904 0.283834815 
-0.892735362 5.66304302 0.0441922285 
-0.403698295 5.65974808 -0.857610226 
-0.637458622 0.466774255 -0.877795756 
0.697236538 5.66391563 0.281406015 
-0.00206619175 5.59994411 -1.10519481 
-0.478689224 4.2526679 1.03923655 
0.806292415 4.56435585 -1.01766491 
-0.931826472 4.28039503 -0.698281527 
-0.723527193 5.66115093 0.59725976 
0.550410509 4.06433392 0.888598859 
0.111381687 3.56647873 -0.70721817 
1.22064281 0.640417576 -0.383098006 
0.610658765 5.6410408 0.841091931 
-0.815474212 3.93705106 -0.523923934 
0.365901202 2.66751981 0.516295254 
0.612870097 4.42350817 1.06535125 
-0.860981584 5.0630641 -1.12191892 
-0.342994481 4.82036829 -1.30757105 
-0.573349178 3.36181784 -0.0888632536 
0.236611128 2.79442406 -0.482251346 
-0.372626275 3.52740479 -0.597997963 
-1.0325948 1.87314332 -0.412240654 
-0.0330903605 4.68284512 1.30643737 
-1.33194506 1.14942324 0.341592848 
-0.389632285 5.53104115 -1.13063908 
-1.20124543 0.763875723 -0.643519163 
-1.31630266 1.21964788 0.355763346 
-1.28291631 1.2082634 -0.484906018 
0.532503843 5.66391659 -0.316594154 
-0.347004414 0.384432644 -0.241624385 
-0.0370365977 3.30082226 0.537125111 
1.2008357 1.40268958 -0.551454425 
0.43632704 5.66391659 0.234794766 
-1.36468172 0.959958971 0.110174224 
-0.666226506 1.54020429 1.09618878 
-0.587704718 5.47149515 -1.11686289 
0.839537919 0.698113978 -1.04276419 
-0.082661137 3.62009883 0.745093286 
-0.244210333 3.61245036 -0.712505341 
-1.3459729 0.758349895 -0.0373989716 
-1.11179781 5.57169724 -0.25968641 
-0.640764952 4.18511105 0.911322773 
0.49785924 5.66391563 0.445708543 
0.45406884 0.384435385 0.352488816 
-0.114551343 5.66391611 0.181194156 
-0.74556762 5.6638732 -0.343757063 
0.524536669 4.53766251 1.16130149 
-0.366612107 5.57066059 -1.08483434 
-0.433076113 3.80230188 0.768206775 
-0.902884126 0.548066854 0.806596577 
-0.627626896 2.46422458 0.438902169 
-0.260858029 4.8103075 1.3204937 
0.817639947 5.15768003 -1.14762425 
0.586870968 0.594710469 -1.10649776 
-0.627566755 0.386950612 -0.545394719 
0.841879547 5.17979193 -1.12734365 
0.864979386 4.32672215 -0.820268154 
-1.22229493 0.629950166 -0.346549392 
-0.217429042 3.1559999 0.40966469 
-0.732465148 5.66363525 -0.473147511 
-0.879793882 0.413401634 -0.358554721 
1.09696758 1.07185364 0.887023389 
-0.317578882 1.76059103 -1.11924493 
-0.771340489 4.105124 -0.747190297 
-0.921650052 5.22199965 -1.05932093 
-1.15740514 4.82640362 0.747344017 
-0.0796509087 1.46690726 1.27800071 
0.776202321 1.36780512 -1.10415506 
-0.728549182 5.11315393 -1.20750928 
-0.323079914 2.47077084 -0.681833684 
-1.09406877 4.20544863 0.0966945663 
0.727075517 1.23661304 1.17323434 
1.19858098 4.40305758 0.00269605126 
-0.127086267 5.45144415 -1.25843596 
-0.856718183 3.80409026 -0.151066169 
0.034598317 3.63554239 0.757819712 
-1.0364759 1.76464725 0.550330877 
-0.381841421 3.65290213 0.688307583 
0.0061381571 3.15697694 0.46217677 
0.38149339 5.66391754 -0.478820115 
-1.24327147 4.77416801 0.534726501 
0.985092402 4.66532993 0.902034044 
-0.527248859 1.68453777 1.09359336 
-0.623559237 1.61785996 1.0844245 
-0.0688342825 3.56389618 -0.709323645 
0.464149028 0.391150951 -0.733903289 
-1.06503737 1.7461195 0.510398924 
0.765078545 5.66374922 -0.380817324 
0.787144065 1.65502369 -0.958059609 
0.741536617 0.787214875 1.16106343 
-0.118396185 3.75488019 0.830264807 
0.45637998 4.23167372 -1.03556335 
-0.423633426 2.92202806 -0.196431592 
-0.77572149 4.15038919 -0.778657019 
1.36465764 5.16247368 -0.0472702868 
-0.595509648 3.59579015 0.460444927 
-1.14125967 5.56401062 0.138928384 
0.854948521 3.78721952 -0.0498210341 
0.455433577 3.21278262 -0.183632404 
0.295752466 2.34087276 0.779524684 
-0.712541699 5.02886105 1.21286237 
0.78000623 2.16367102 0.560261488 
0.790498734 4.14933109 0.762403488 
0.892446756 0.977851689 -1.09686029 
-0.580247879 0.567078829 1.07965279 
0.792800844 5.66327763 -0.399345458 
0.739913046 2.17317677 -0.602154613 
1.36479735 5.07473278 -0.0560872853 
-0.949904025 0.548336983 0.751711011 
-0.418303788 0.752154768 1.27856421 
0.0837002546 5.66391754 0.122622587 
-0.423582941 2.83102107 0.302788228 
-1.06507087 4.69125557 -0.815845668 
-0.94026494 5.19824505 -1.05092883 
0.112748511 5.31881428 1.33619678 
1.03771806 4.7073245 0.859643638 
-0.751100898 5.12202358 1.19448566 
-0.455799878 3.40468597 -0.416084796 
-0.84308511 5.49993563 -0.915303588 
-0.391855657 0.384432197 0.206829444 
0.654935539 3.68471074 -0.48105073 
0.501692653 3.50483608 0.470606178 
0.404890537 2.67825007 -0.479617298 
-1.19764447 5.51725101 0.107229903 
-0.080762893 5.66391993 0.527752399 
0.18722792 5.6639185 -0.679905832 
0.813221693 4.18998241 0.769981802 
-1.30203772 5.30262184 0.366362095 
1.2823602 0.98118639 0.565462351 
0.642599106 5.19194412 -1.23894024 
-0.313869238 4.3366766 -1.13073528 
0.685948849 3.53502321 0.120684162 
1.27338624 0.639948547 0.0748890564 
0.780500054 3.6901443 0.176339254 
0.0355211273 5.66391468 -0.734697938 
1.30408883 0.820073724 -0.415276766 
-0.572106779 2.22869253 -0.715740025 
-0.0940814838 0.473575294 -1.06523108 
0.000693154521 5.37992287 1.31311083 
0.5471223 0.385762781 0.59718442 
-0.756228805 0.949496388 -1.18971896 
0.0185295977 0.948261142 -1.36465836 
-0.329070747 0.384437025 0.00718192663 
-0.598271489 3.85090423 0.703792572 
-0.703124762 3.72047687 -0.446286678 
-0.625578403 1.23094249 1.22204137 
0.0227666236 4.92731524 1.36269259 
0.393819422 3.04113245 -0.19341436 
0.0929698497 1.12256241 -1.36294484 
0.313321888 2.79936123 0.441051394 
0.0785772726 5.35377693 -1.32456565 
-0.00478152791 5.66391373 0.591870308 
1.36469746 5.0875864 0.128867954 
-0.851423681 5.63596058 -0.61630857 
-1.01335001 1.92210603 0.386747211 
0.623411179 4.60825491 1.14781249 
1.29910302 0.673161507 -0.0343800411 
-1.26135445 4.81660271 -0.517280459 
-0.185224324 5.38740253 1.29626393 
0.778490782 3.89878201 -0.539185762 
-1.02100265 1.90815997 -0.387306869 
0.755077362 0.471066684 -0.794480562 
-0.313032746 1.18112826 -1.33260775 
-0.242213488 5.66391802 -0.339028597 
-0.099270843 5.66387463 0.818044245 
-1.19794059 5.51443338 0.158746764 
0.178963602 0.384433806 -0.0622213781 
-0.522309065 5.49800396 -1.11943185 
-1.19963527 0.584307969 0.24969998 
0.232904255 3.37088156 -0.543997347 
-0.595166206 5.08653831 1.27064097 
-0.635067761 1.39976335 1.16601253 
-0.669469714 5.66391754 0.187517628 
1.28832245 0.798492014 0.449895382 
0.344888419 0.384435743 -0.140131295 
0.872527301 3.82872868 -0.143460006 
0.717191219 5.45246792 -1.06733537 
0.795085073 2.13074493 0.574796438 
-0.633069575 3.95898819 -0.757403135 
-1.26530659 4.62619019 0.268868268 
0.157819659 2.74868631 -0.537885666 
0.104860216 0.751168549 1.3315227 
-0.355422407 3.229105 0.357759029 
-0.974089146 0.43418473 -0.237844706 
-0.849236786 3.82861781 -0.269310474 
0.510025084 0.384437382 0.43400234 
-1.03291702 5.53738737 -0.604286194 
1.00176573 2.05307865 0.0382841378 
-0.386319041 5.27396011 1.30648482 
-0.497666359 1.7835021 -1.0486002 
-0.755582452 4.66435528 -1.09661841 
1.23497415 5.23138332 0.633270144 
-0.958977163 4.9274354 -1.02622855 
-1.18688476 0.554565907 -0.106470004 
0.576077342 3.70909715 0.598962128 
0.737251818 0.656849742 -1.08249736 
-0.148497969 5.39173031 -1.29835701 
-0.920940399 0.760549545 -1.02135944 
-0.65918386 1.15344465 1.22354496 
0.351199627 0.386356622 -0.736126184 
-0.265046746 0.615198255 -1.22640634 
-0.47363615 2.8905015 0.0266053695 
-0.576412916 2.300951 0.650986731 
-0.33632049 0.591718733 -1.19197798 
0.423556507 4.73155832 -1.2644546 
0.722952604 0.837695122 1.18682289 
-0.766625941 0.527303278 -0.901750267 
1.07894468 0.83746928 0.886579156 
0.212789476 3.23336267 -0.456036121 
-0.216809288 4.21919203 -1.08895814 
0.709339797 2.42204762 0.338333696 
0.517963827 0.574304879 1.11591995 
0.160983428 0.452485085 1.02032876 
-0.200177521 1.12150931 1.359532 
0.471791774 4.62992716 -1.21686912 
-1.23969436 0.728879929 -0.506050944 
-1.17960608 1.70366549 -0.114259288 
0.0969263539 0.386299491 -0.807539463 
0.85430783 0.397619605 -0.285616219 
1.21045649 0.804097474 -0.654979348 
0.379388332 2.08497477 -0.920062602 
-0.828117847 4.98535204 1.13800466 
0.850766182 4.20237064 -0.735769093 
0.111956343 4.26263571 -1.12286162 
-0.841893852 0.972115159 1.13273191 
-0.629144371 5.65432835 -0.766849458 
1.17472184 5.05940485 0.783124685 
0.931972623 4.14265299 0.561551511 
1.32752514 1.01525903 -0.410009742 
0.620535314 5.28109264 1.22605503 
-0.307244092 5.27800226 1.32359052 
0.889641762 0.806513429 1.06624365 
1.16450381 0.616569638 0.500351429 
-0.0420383476 4.63466644 -1.29093719 
0.112419784 5.66391087 0.777173579 
0.973059595 0.664507449 0.897188485 
0.703806162 0.59494549 -1.04352212 
0.940652251 0.441202939 -0.397703588 
-0.276752293 3.5744679 0.676240504 
0.308389306 1.87014294 -1.06432605 
-0.513023555 5.6635046 0.714684308 
1.22137392 5.27869797 -0.632300317 
0.359167397 2.6274395 0.551677704 
-1.25028884 0.637686372 -0.235231027 
0.80222702 3.97162819 0.586177111 
0.949755609 1.47595346 -0.9136343 
0.0654682145 5.18397903 1.36338425 
0.230245665 2.4946394 -0.697638035 
1.3011328 4.67077732 0.109123245 
1.06191003 0.707289577 -0.822492361 
0.239004835 3.75154829 -0.806856155 
-0.640193522 1.84279776 0.943066835 
-1.15640628 1.18164444 -0.776181459 
0.35291189 3.68284416 0.722963691 
0.304971904 4.0623064 -0.984234691 
0.742363155 0.414827496 -0.612243831 
0.527048051 5.66391993 0.218470514 
-0.858473182 2.00190735 0.613027275 
0.76258564 4.31895685 0.908009946 
-0.0189008154 1.75680768 1.15514112 
1.16767299 5.52618837 0.279460341 
-1.26287723 4.66948414 -0.349395305 
1.05015135 5.16271114 0.950821936 
0.170627162 0.558903694 -1.18198764 
0.452291489 2.76441264 -0.339883238 
0.12944971 2.91598558 0.447152734 
-0.130782083 5.66391182 0.765207589 
1.14990425 4.46875381 0.470774591 
0.852916241 3.98941755 0.524257421 
-1.00806057 5.51094389 0.70917058 
-0.483080059 1.97373319 0.948232234 
1.06620395 4.2085638 0.310359389 
0.302307904 1.05475986 -1.35302961 
0.0314319208 3.22656298 0.494451672 
-1.36319065 5.22619724 -0.0700224787 
-0.839972079 5.66316891 0.281194061 
1.1406858 4.42853594 -0.442985505 
-0.109055921 3.50761724 -0.668502569 
-1.2959621 1.01850343 -0.525272131 
0.378505588 1.83302951 -1.06558633 
0.495038301 3.40453601 0.370693266 
0.215533689 0.38443473 -0.296515167 
0.404018074 3.92679334 -0.866389155 
0.100921057 2.87500501 0.472628593 
-1.12603962 0.88311553 -0.837010145 
0.745887101 3.81895399 0.496494889 
0.561756968 3.7352953 -0.63568753 
-0.819093168 1.55805516 -0.985547483 
0.561469615 4.54773378 1.15046883 
0.897653341 4.52143764 0.916879058 
0.173109591 1.14649379 1.35819054 
0.425112367 1.29017663 -1.28141224 
-1.14790511 1.49363351 0.593817711 
0.27372247 5.00808144 -1.35660887 
-0.703543544 0.393148631 0.53364253 
0.43557179 5.66388321 0.698210239 
-1.26715302 1.41883099 0.319963098 
-0.683338165 4.01196289 -0.755887508 
1.29738045 1.14397669 0.476176292 
-1.14241421 1.78269827 -0.0172359776 
-0.891431987 2.2341547 0.026089225 
-0.704735279 4.89907837 1.19726706 
-1.34022081 5.34485912 0.073968038 
-0.744634449 0.386803925 -0.347342551 
0.522452593 0.619956315 1.15928185 
-0.973718345 4.00355721 -0.189547896 
1.11972022 4.50086498 0.580528855 
-0.206234097 0.384434909 -0.168580234 
0.310695231 0.384515792 -0.656607926 
0.0750855207 1.19121301 -1.35667217 
-0.419049382 2.45780182 -0.644091606 
0.308522731 1.34263039 1.29479671 
0.215698928 0.384432793 -0.559831321 
0.73337841 5.66334534 -0.506670058 
0.341068596 4.36042929 -1.13611293 
-1.11468887 4.25417709 -0.14593482 
0.247798175 1.34067452 -1.30335462 
-0.716992617 4.77428961 -1.15829492 
-1.05020702 4.23689938 0.422823131 
0.564297795 4.62007523 -1.18012738 
-1.00828731 1.522874 -0.812615812 
1.34089637 5.10790968 0.3587915 
0.303810716 1.2691009 -1.31466711 
-1.09311795 5.58343601 0.266583711 
-1.14930165 1.37644267 0.689005256 
1.1432209 4.29136753 -0.0637643114 
-1.08711743 0.847692668 -0.879626572 
-0.764116466 5.44021511 -1.04906416 
0.557667136 2.43182135 -0.566460967 
0.804319799 5.64516258 -0.639614761 
-0.132628828 0.384437948 -0.157401413 
-1.28612113 0.679997146 -0.210285753 
-0.0863453224 5.41233921 -1.29021752 
0.742452681 5.10058165 -1.20039356 
0.81889981 4.37515259 -0.898062348 
-0.989649415 4.74955654 -0.936669827 
1.17369151 4.64124203 0.596660674 
1.00657785 0.507428467 0.561601222 
0.975096166 5.62544823 -0.418848902 
1.08206809 0.497871667 0.312070072 
0.246174574 0.384435296 -0.30986315 
-0.69927305 4.28119373 -0.931571901 
-0.363438398 5.66338348 0.800725579 
-0.632717788 0.971265256 -1.25417089 
1.26518393 5.28208637 0.524730861 
-1.34510088 1.02597475 -0.344072044 
1.12426019 4.2970252 -0.243634 
-1.36129928 1.201599 -0.0244013481 
-1.29995573 4.86768627 -0.421026438 
1.00834525 4.42490864 -0.713997781 
-1.15265679 0.536865592 0.197453082 
1.22927511 1.60137796 0.0516095012 
0.0474338122 5.61316729 -1.08486223 
-0.428804189 2.68227386 0.455566615 
-0.254921287 2.09486532 -0.948828638 
0.798840642 3.7554822 0.276078314 
-1.29601455 1.36305678 -0.26056087 
-0.937164485 1.15425587 1.04671574 
0.0591464639 4.92643404 -1.36162663 
0.216638446 1.5679605 -1.22769153 
0.69928968 5.66384745 0.464949459 
0.628959358 3.50331974 0.270232886 
1.11325479 4.41140747 -0.496815622 
0.288719475 2.86893845 -0.405961186 
0.104516678 4.14263439 1.05825508 
-0.333803236 2.82045889 0.410119772 
-0.898784578 4.12317419 0.597468972 
-0.740462601 1.67298758 0.98349154 
-0.559156895 1.0930773 1.27607262 
0.0817104876 3.21717405 -0.485284328 
-0.00243082922 4.84333992 1.35248411 
0.531491458 0.38443616 -0.414183199 
-0.721353412 3.65884399 -0.314862132 
-1.10564792 5.40126085 -0.728570163 
-0.948897362 5.36384439 0.960232615 
-0.347095251 0.423992693 -0.91650033 
-1.11861038 1.50275409 -0.651151657 
-0.695770741 3.6634407 0.382293463 
-1.20528734 1.56898367 0.339139879 
-0.544023395 2.76175594 -0.0707968175 
-1.19910944 0.976682305 0.744572937 
0.413210839 5.66390228 -0.68648845 
0.590723157 0.464182407 -0.902439117 
0.994239569 1.8982147 -0.476109326 
-0.152543798 4.79264259 -1.32978952 
0.290623307 4.91397572 1.34040499 
0.535188198 1.97105229 -0.925669551 
0.917882323 2.19064212 -0.00818142574 
0.019489402 1.80383408 1.13162136 
0.151599005 1.03440607 -1.3644805 
-0.335380644 4.89089584 -1.32552695 
-0.75125432 5.073277 1.195104 
1.01587486 1.11603379 0.983601928 
0.995576262 1.50040925 -0.844051838 
0.191274434 0.384434789 -0.180816039 
-0.282594264 1.1849283 1.33768618 
-0.425970584 4.36535406 1.11549342 
0.671778977 5.52182007 -1.01723063 
-0.567767799 5.66391611 0.0357726812 
1.2679112 0.800677717 0.514063716 
-1.31562269 5.37084818 -0.156134278 
-1.25945365 5.25016737 0.567198098 
-0.338031232 4.5283699 1.21313643 
0.126752794 2.79410458 -0.514630377 
-1.13301075 4.35897684 0.35045737 
-0.845342636 4.65347195 -1.02704239 
0.051008679 0.384471536 -0.711001575 
0.0949202701 5.11062956 1.36466491 
-0.537691176 2.27983451 -0.699950695 
0.166044831 5.66391563 -0.348389894 
-0.978605986 5.64953947 0.205704123 
0.365301549 5.66391611 -0.293207109 
1.24412251 1.52245593 0.220551312 
0.903506756 1.35961151 1.01334858 
-0.651929975 2.4678545 -0.391461313 
0.324421316 0.864216328 -1.33868814 
0.206203669 4.83816862 -1.33355534 
0.100147627 2.78479457 -0.525651693 
0.939693987 5.29946375 1.01196873 
0.112794086 0.390970707 -0.856097758 
-1.01466691 1.99362087 -0.211036995 
-0.173886403 1.704391 1.1748724 
1.3641386 0.883672953 0.0365275368 
0.439843535 2.60699606 0.514609754 
0.400600076 4.69225502 1.25784099 
-0.864373386 4.06042147 0.588957667 
0.978487015 5.34737396 0.942905784 
0.641724229 3.832932 0.652203798 
-1.3178364 1.37151086 0.032110285 
-0.9218629 0.79126215 -1.03534007 
0.969511867 4.21251678 -0.575927258 
1.13261342 4.2658906 0.0314713344 
0.18616578 2.71132827 0.558065295 
-0.441798836 0.40239343 -0.799185038 
1.21159816 4.62625408 0.484849513 
-0.874884963 5.66235828 0.244182855 
0.340492755 5.6639185 -0.525452554 
0.899600983 1.18016803 -1.06960249 
-1.0006181 4.42693663 0.727377892 
-1.23664916 4.56298351 -0.293599308 
-0.619108617 0.393896878 -0.63552922 
-1.22394681 4.82697964 -0.616405964 
1.17068815 1.25353527 -0.724378169 
1.28588367 0.698311508 0.277754545 
0.778027892 0.425215185 -0.613015234 
0.478195667 3.29247475 0.253228247 
0.260993361 5.56499147 -1.12105668 
1.30754447 5.21122932 -0.442897558 
-0.077331014 4.31871176 -1.1551404 
0.341339052 5.66245794 -0.840776801 
0.568276167 1.79448438 -1.01014304 
-0.875853181 4.69132948 -1.01842296 
-1.08713675 0.788614392 -0.852183461 
-1.24463654 4.56616497 0.257290423 
-0.988111496 1.16436124 -1.00016952 
-0.971752465 5.33073711 -0.96188426 
-0.182345927 0.662562251 1.2757498 
1.33965218 5.17680645 -0.336917549 
-1.27544236 4.6522603 -0.264280617 
0.386047989 3.04850745 0.210152537 
1.24722147 1.13895547 -0.610428333 
-1.1535188 0.61061132 -0.514964461 
-1.33472073 4.92526627 -0.324615449 
-1.18446422 0.960373342 -0.766084015 
-1.35849929 5.23047829 -0.168596506 
0.18075496 3.82766485 0.867449939 
-0.780883074 0.763284445 -1.12632775 
0.525888979 4.6212635 1.1962887 
-0.275484473 5.66196632 0.872511029 
-0.581177831 0.847215533 -1.25678635 
1.22198486 1.3223449 -0.566167295 
1.28750515 1.25335276 0.439467847 
0.75351429 2.43045998 -0.179096699 
-0.685124159 5.52044678 1.01078737 
0.647378027 5.66383743 0.540381432 
0.733201981 4.68584251 -1.1186111 
-0.12071003 3.34000802 0.553352237 
1.26795483 4.85680294 0.524418175 
0.808021426 5.66336727 0.349383056 
0.939516187 0.574159443 -0.81172967 
-0.0667258948 2.11155844 -0.964492083 
-0.698832691 0.49072668 -0.887375593 
-1.10447907 4.33700943 0.415529072 
0.416470498 4.72672272 1.26471758 
-0.271336198 0.430687755 -0.959153771 
-0.866329849 0.953894138 1.11429977 
0.606413722 3.40497422 0.0198914371 
0.178028166 3.76199532 0.826581597 
0.566810369 2.5851934 0.389108956 
0.57490778 2.51159024 -0.464146018 
-0.103345633 3.86601281 -0.899367273 
0.962251365 5.26358986 1.00945878 
-0.93718487 2.15458584 0.0792269483 
-0.528353333 3.29481602 -0.090763934 
0.792783201 0.524529099 0.873087168 
-0.715248466 1.66436875 -1.00656533 
-0.491546929 2.54417825 -0.526528001 
0.354634345 3.15959406 0.308309257 
-0.516328931 0.384431511 0.367426157 
-0.402219474 1.38264632 1.25961411 
0.518215775 4.44448042 1.12019444 
0.66319102 0.858744979 -1.22250652 
-0.13575159 3.8624084 -0.894242465 
0.240818024 4.13558722 -1.04095757 
-0.37857905 0.384442419 0.572652102 
-0.437195808 0.384436578 0.265282869 
-0.296353638 3.43697929 0.567664981 
-0.218722388 2.96179366 0.397474349 
0.494208813 3.33242035 -0.280454814 
-0.171921358 2.51730919 0.696939528 
-0.275763899 0.584888637 1.19666409 
1.09017015 5.53342295 -0.490612358 
0.267338902 2.98635674 0.361529469 
0.973225832 1.90443635 0.515576303 
1.11533761 0.553229034 0.453069806 
-0.368993193 4.66308498 1.25562477 
-1.22530746 5.09686899 -0.694954157 
0.759227216 1.0649128 1.1860739 
1.16275871 4.79318428 -0.719963312 
1.18009877 0.567648649 -0.268576175 
-0.305296034 0.795374155 -1.32454789 
1.35434914 0.813606918 -0.14671126 
-1.28309798 1.4033798 0.258259892 
-0.898551166 1.01790476 -1.09247565 
0.81235671 1.23489857 -1.1202873 
0.661285281 1.72458339 -1.00579596 
-0.182441995 0.655019462 -1.27035165 
-1.2332418 5.46625948 -0.247913688 
0.606841564 2.66478682 -0.0770855695 
-1.1565851 5.49082565 -0.448927164 
0.268702358 1.50591707 1.24344993 
-0.377172887 0.384431958 -0.346703947 
0.134224936 5.53390694 -1.17790592 
1.09343004 5.10896969 0.900860071 
0.820625305 2.25390935 0.344057977 
0.269939721 5.08925343 -1.35931885 
0.957361341 4.20177221 0.585358739 
-0.674471557 5.38434219 -1.14694417 
0.993433058 0.790272474 0.970423877 
-0.222304553 3.60004759 0.709916949 
1.0095818 4.1410079 -0.375356436 
-1.23249173 5.29711819 -0.592949748 
1.20642245 5.3068409 -0.640783012 
-0.885339558 3.85093951 -0.151404589 
0.535401523 5.66391706 -0.424578249 
0.875403643 5.20414734 1.09847116 
1.0280509 5.59512377 0.42125836 
1.0680517 5.11689711 -0.935012758 
-1.05001521 1.96268618 -0.06547416 
0.603333294 5.66391468 0.181471288 
0.422878295 0.384434074 -0.20997712 
-1.24255002 1.3443687 -0.491684556 
-0.72956109 2.45997238 -0.19833149 
0.777292609 3.79841042 0.409276843 
-1.35319614 4.86022997 0.142837584 
1.17057252 4.64085388 -0.602949023 
0.93448776 4.56323576 0.903681993 
-0.340663612 2.23977399 -0.831542492 
-1.31143117 5.03989744 -0.468890846 
-0.109282307 2.94859934 0.438105941 
0.979079902 3.99689245 -0.0954142287 
0.228843331 4.58925056 1.25858068 
0.118982174 5.52414703 1.18944085 
-1.09004176 1.88563693 -0.00347785093 
0.983332038 1.41189802 -0.911852002 
0.149966985 5.04355478 -1.36440718 
0.755639195 3.88844132 0.562630594 
0.782622337 4.23339891 -0.832334876 
0.49325183 0.503266156 -1.03124273 
-1.0001179 4.1584487 -0.432881385 
0.799128652 3.71988535 0.177945957 
-0.00500080502 5.64541101 1.02103686 
-0.914208651 5.3141427 1.02597106 
1.27274501 0.881637573 0.560910165 
0.958869696 5.65492058 0.182903484 
-0.17037873 0.384438843 0.663552701 
-0.597435951 0.394666553 0.661209702 
-0.874029815 1.20044231 1.08428407 
0.393379211 3.50976992 0.570879221 
-0.587328553 4.10894966 -0.89600718 
-1.18823099 4.56178761 -0.477447152 
0.300107241 3.20274353 0.387034178 
-0.395421952 1.59246671 1.18126225 
0.00226734299 0.384437084 0.671669006 
-1.26409996 1.34864414 0.423963994 
0.189087987 0.384841681 -0.753083944 
0.446522593 0.590682983 1.15813875 
-0.580282927 2.64477992 0.27087304 
-0.498084009 0.384433776 0.338410318 
0.247165859 5.66391897 -0.51910907 
0.303570181 0.425858647 0.938106775 
0.352661669 5.27400112 1.31488442 
1.09164333 4.19446564 0.0552832596 
-0.914304614 0.405675232 0.0891850293 
1.26451588 1.0101186 0.6086362 
-0.335209459 1.69616747 -1.14706004 
0.490056872 2.85378599 -0.0591492504 
0.328062087 3.15352726 0.334113657 
0.119040817 1.63408756 1.21136999 
-1.11839485 0.851616025 0.838457584 
0.599446118 1.37378347 -1.19110203 
0.509530067 2.68558979 0.35235244 
1.36431837 5.04692698 -0.17140241 
-0.836125016 5.6638236 -0.0631875843 
-0.609891415 2.49060774 0.435227871 
0.597462535 2.51348352 -0.427369088 
1.03978646 1.79489183 -0.502708137 
-0.660226226 3.96718979 -0.741412759 
-0.236168444 3.22155905 0.437481374 
-0.0447377414 3.67176437 -0.782251179 
0.608039498 3.46515632 -0.251410693 
0.489621371 5.66391706 0.340218961 
0.608080506 5.16106844 -1.259902 
-0.0559175834 2.9068656 -0.463519812 
-0.891105592 1.5866487 0.909945488 
-1.351583 1.13759053 0.262305975 
0.475743473 5.38797379 -1.2319752 
-1.26365566 0.6584934 0.256036282 
0.609968841 1.28284204 1.21522713 
-1.20316982 1.28972316 -0.634135723 
0.85270077 5.65155983 -0.522318482 
-0.356102943 5.63215208 0.985336602 
1.1411792 4.2996273 0.11696811 
0.970708609 0.453916073 -0.400853157 
0.907997429 4.48140669 -0.881810009 
-1.07849407 1.09440482 0.908872187 
0.058414761 0.385631323 0.795975864 
-0.993634939 4.75018072 0.93273741 
-1.26518857 4.7980175 0.488742292 
0.405589432 5.66288853 -0.803544521 
0.409932375 1.64032435 -1.15536165 
-0.352785707 5.65452814 0.91482389 
0.10491962 5.65871525 -0.947809458 
0.591905832 1.57692742 -1.1165905 
-1.13348508 1.33095312 0.75018096 
0.171272472 1.33672881 1.31200504 
0.583943069 4.78533125 1.22722006 
0.152994692 4.62022161 1.27745306 
0.317013502 5.66391325 0.449913353 
0.645211339 5.31798363 -1.19960737 
-0.0168108009 2.70929027 -0.579369724 
-0.361501873 0.700272441 1.26712441 
-0.992679536 1.42088211 0.896337032 
0.851771474 3.95665932 -0.481023908 
-0.448408693 0.384435177 -0.392648458 
-0.619848728 2.24443913 0.658376992 
0.766926825 4.83240891 -1.14803672 
0.784450591 3.69127178 -0.155763164 
-0.00103325164 0.97308296 1.36476183 
-0.752598524 1.61201906 -1.00786352 
0.935008526 5.56385231 0.699610651 
-0.5861516 5.66391325 -0.303174347 
0.721435606 4.91881752 1.19207251 
0.438836426 1.16112995 -1.30527604 
1.13989341 5.51489687 -0.421732545 
-0.114970699 5.59745312 1.09909999 
0.0155037446 5.66391325 -0.152598932 
1.1057868 0.549785972 -0.468584359 
-0.173213884 1.00269485 1.36439884 
-1.17653418 1.50634146 -0.513954341 
-1.35237956 5.31783295 -0.0495311171 
0.873108625 3.82399082 0.107907228 
-0.779084504 3.66646695 -0.0296986271 
1.05701137 5.59679461 -0.33049503 
-0.365448177 3.3038218 -0.408947527 
-0.781770647 2.30775738 0.350206524 
-0.0265115276 1.25504184 -1.34499598 
-1.06894314 4.64480114 -0.784932613 
0.661905169 3.79648733 0.595372915 
0.653753757 3.71289444 -0.514723063 
-1.32774627 4.96914911 0.381045341 
-0.96693331 1.90505457 0.528511345 
0.976943791 0.456390619 0.398254812 
1.01239729 4.05953932 0.105403073 
0.455854982 4.53571606 -1.18390989 
0.95552218 5.64325142 0.365427077 
1.29850543 4.86465549 0.424428105 
-0.132281542 5.66391611 -0.497391552 
-0.445604682 3.31614447 0.334055781 
1.18540454 4.7138505 -0.624092758 
-0.190571681 1.75172782 -1.14965403 
-1.30315864 4.75099611 0.2798751 
-0.0439663455 0.384434849 -0.272504389 
0.00229239976 0.398878515 0.891682863 
-1.22269607 1.36858249 -0.525246859 
-0.42270112 5.30281067 1.28909874 
-1.07638848 0.76236707 0.84970057 
-0.17772612 5.63944435 -1.01503432 
-0.0861462802 3.49706268 0.663489223 
-1.11727548 1.80083036 0.23519592 
-1.26940012 4.83331299 0.502865851 
1.0496316 4.14017677 0.199982792 
-1.26975429 1.2176795 -0.515568376 
0.24097845 4.2682395 1.11068213 
0.243781924 5.66391611 0.601424396 
-1.28023934 0.767899215 -0.436483443 
-0.806810498 0.386243016 0.072952956 
-0.641436577 0.384444326 0.256859064 
-0.658973694 3.48538828 0.0205967836 
-0.264554858 5.66391611 -0.271272242 
0.626863539 5.66391468 0.278026879 
0.37133044 5.66391659 -0.68119061 
-0.650720239 2.11966777 -0.744731665 
-0.583471894 0.66824609 -1.17282903 
-0.378002018 3.72147107 -0.738797486 
0.144898564 3.44174123 -0.618917406 
0.0849062204 0.384432822 0.648788571 
0.0756775513 1.24305654 -1.34584689 
-1.30644798 5.07850552 0.491439164 
1.27650237 5.15267658 0.570063353 
-0.355729997 0.467821509 -1.01505601 
-0.213995129 5.64568043 -0.990276575 
0.430232644 5.66391373 0.0133729614 
-0.0390611365 3.54358435 0.697620511 
-0.388405085 5.66258144 0.820016265 
0.780467868 0.38548857 -0.191689879 
-0.122246496 4.74396992 1.31787229 
0.451703727 5.61882877 -0.973936558 
-0.540985703 5.39929867 1.20096445 
0.994214177 4.08221197 -0.311923146 
1.31402206 0.971616685 0.463718891 
-0.618227899 5.6637001 -0.604286849 
0.647515416 2.60834312 -0.026636878 
0.864838719 2.12287569 0.45663017 
1.26528859 5.44879675 -0.0846787393 
-0.875501156 4.90407419 -1.08977664 
1.22460616 0.728824258 0.546412587 
-0.789533257 2.38998055 -0.101451881 
-0.107144773 5.65703964 -0.958059549 
0.485711157 0.454087496 0.93674469 
-0.998978615 0.914980114 -1.00672507 
0.0328023136 0.407794595 0.92181325 
0.0860102326 2.46928525 0.739782751 
1.06493187 1.56106639 -0.70549202 
1.26745915 1.27893615 -0.478436589 
-0.151551723 2.86971402 0.464185148 
-1.29091358 4.75682926 -0.346876234 
-0.898175359 4.3361516 -0.788951397 
-0.349289596 0.451030225 -0.982670128 
-0.330871314 5.66391516 -0.422293782 
-0.768004179 5.55006886 0.905736923 
-0.58283329 0.959168196 1.27437723 
1.33608055 1.18716526 0.289171696 
0.793876171 0.811145961 -1.13717914 
-0.954078734 4.04165649 0.364995807 
-0.0270343609 5.66391516 0.417726964 
-1.3605175 5.00309324 -0.233460456 
0.399071008 1.88360763 -1.03118014 
-0.787486911 3.91322541 -0.5414235 
-0.503088951 3.26294255 0.123571426 
1.34627676 0.884356201 -0.31066829 
-0.546748757 3.77522564 -0.681809306 
-0.425260395 3.99938154 -0.904799461 
0.342140138 0.384435952 0.1632808 
0.556834638 5.66391706 0.108941615 
0.144465864 2.09316444 -0.967649877 
-1.22340155 4.48512983 0.165771008 
1.07508349 5.42156935 0.750674367 
1.32085609 5.24522781 0.362480819 
1.20265281 1.17472124 0.695958793 
0.972309768 0.765166879 -0.978605688 
0.977642119 0.433571279 0.201796025 
0.776439548 2.09590721 0.63654995 
0.611967862 2.12952423 -0.76916796 
-0.864070773 5.66348648 0.11865963 
0.161000192 3.43350983 0.610178769 
0.722060323 2.29174423 -0.493228316 
-1.2858808 1.4477036 -0.0838574246 
-0.0489746183 1.9672544 1.04833651 
-1.36014652 4.94736719 -0.168352783 
0.391663462 3.36557078 -0.441144228 
-0.959163785 5.16605186 1.04268086 
0.215533361 5.03692484 1.36299562 
-0.711564541 0.488821059 0.873045743 
0.0880103707 2.36699724 0.805113435 
-0.819132805 0.871910572 -1.13682389 
-0.00263629574 0.926313758 -1.36441159 
0.0709501356 2.40236664 0.783593118 
0.866012692 4.40067196 0.871042788 
0.985338748 0.585204065 -0.771323919 
-1.18407583 0.843705893 -0.73132956 
-1.2252562 0.831814885 -0.641868114 
1.30210161 0.694875836 0.162612677 
0.818667054 4.05872869 0.652074933 
-0.757115901 2.17469525 -0.579365969 
0.362803787 0.384431839 -0.241061956 
1.01658738 4.56465912 -0.807886004 
0.453678668 2.56414557 0.539692938 
-0.744026899 4.46026373 -1.00819135 
-0.671838641 0.62229389 1.09136629 
1.2868855 1.25062823 -0.443630576 
-0.269710749 3.44474554 0.585626483 
-0.927158415 2.07325149 0.380290449 
0.750418186 3.71906257 -0.347047329 
-0.204026103 0.411631852 0.924553394 
0.442900538 3.82666111 0.780043662 
0.547984719 2.49386883 0.518256605 
0.0246440247 5.64737988 -1.01351738 
0.374472111 5.40028191 1.25243354 
1.3604995 5.15591335 0.230013639 
0.326484889 1.93311632 1.02385449 
-0.70179224 0.42037344 0.683680892 
1.26085234 5.17816687 -0.600533903 
0.906907797 5.66119385 0.204917565 
-0.623702884 5.66390085 0.506685078 
-0.422365844 0.553945243 1.1264255 
1.09784877 0.839266002 0.861899674 
0.419019341 3.8123827 -0.782415211 
0.384976774 3.84215856 -0.817673326 
-1.25885534 0.873417497 -0.590990663 
-0.600158095 2.01941442 -0.855455637 
0.109651208 2.99314213 -0.426141083 
-0.310010374 2.75747895 -0.476346761 
0.277314186 2.39301872 -0.75116092 
0.610283434 0.384450257 -0.322709948 
-0.0165454559 0.384435087 -0.244311199 
0.0718932822 5.66391897 -0.255169898 
0.553682864 4.70573521 1.21486545 
1.25945544 4.65789127 -0.347116947 
-1.23347902 1.5574193 -0.20330812 
0.953654766 2.05210209 0.334624469 
0.262028843 5.66391706 -0.651625812 
-0.448255002 5.66391563 -0.341581702 
-0.664980829 1.81289864 0.946461678 
-0.211758062 0.384431243 -0.527280509 
0.0904839188 5.47552681 1.23877192 
-1.34317946 4.98848057 0.331831336 
0.168177187 5.60204172 1.08350444 
-0.753489375 1.36358237 -1.11959171 
1.27685022 1.35574865 0.370548397 
-0.360849798 4.3421154 -1.12188196 
0.143127471 1.22558463 1.34491253 
-1.36236846 1.07114887 0.206653342 
0.0284388252 4.92089462 -1.36186314 
-0.0780410022 0.511337876 1.13073957 
0.982089579 4.85120058 0.982663989 
0.770900607 4.79350138 -1.13378167 
1.04001665 1.286883 -0.902024508 
-0.619164944 3.85890961 -0.694032073 
-0.130562827 2.00303435 -1.0224911 
-0.671430945 0.471739471 -0.865645766 
1.06147051 1.86330688 -0.334606618 
-0.662068844 0.384549379 0.317683518 
1.01921201 4.25260162 0.525743604 
-1.18915105 4.60611677 0.52810055 
-0.931743622 4.97918749 -1.06038225 
0.876914322 1.72202921 -0.833710194 
0.467270613 2.82248497 0.226545736 
0.711254716 2.20819426 -0.598607063 
0.301412731 4.22722244 1.07871485 
-1.36086965 1.16271973 -0.114846885 
0.390027165 2.47158623 -0.649920404 
-0.431083262 4.72155333 1.2596097 
0.663695991 5.66391659 -0.309845507 
-0.451168507 2.30844069 0.734526396 
0.397094369 1.93771505 1.00094616 
-0.180131018 3.24686813 0.477298498 
-1.13713491 4.6033082 -0.641163945 
1.23071158 0.651375532 0.377018243 
-0.908997297 1.43173158 -0.976416469 
0.743769586 1.27079535 -1.1549542 
-0.224918887 2.35779762 -0.789269924 
-1.07527018 1.89540684 -0.184338808 
-0.271397084 2.94782233 0.373351574 
0.594135582 2.15612721 -0.761164069 
-0.948282123 0.457517266 -0.476526707 
0.414842606 0.784031987 -1.29309726 
0.384230524 2.01984668 0.957563519 
1.24919116 0.80866313 -0.569524527 
-0.23186329 0.822461426 -1.34629655 
0.959298372 5.65262222 0.234943151 
-0.29871735 3.87350154 -0.87042135 
0.719738722 4.01175213 0.721493125 
-0.251202881 1.05634797 1.35998142 
-0.4189502 4.76851368 1.27597237 
-0.409498364 2.97765684 0.178128406 
-0.666034937 4.42127895 1.03562403 
-0.985077918 4.33384371 0.667763948 
-0.391275883 5.5898695 1.04795432 
-0.220352322 0.421823353 0.94953382 
1.04567349 1.95097697 0.173769057 
-0.644302726 5.58140326 0.942741036 
0.223161906 5.45361137 -1.24693823 
-0.554907918 1.855762 0.981269479 
-0.829001665 0.562967002 0.907760143 
-0.25493297 5.66391563 -0.0199959539 
0.556219459 2.71867514 0.170980543 
0.282739699 5.23372555 1.34110773 
-0.934741497 3.97304058 0.290915877 
0.307000428 5.66391659 0.37517637 
-1.03259122 4.15040207 -0.3159661 
0.541999459 0.601455808 1.13397133 
-0.47108084 2.00628424 -0.93386817 
-0.679906964 2.56102276 -0.0146884257 
-1.18767488 4.6755681 0.59215498 
-1.27062523 5.28383493 0.506637335 
-0.264427125 5.66391563 0.170967549 
-0.663793504 1.21824455 -1.20835209 
1.01671338 2.02808952 -0.0173154306 
0.328187495 5.58375025 1.07767141 
0.241354018 5.09504747 1.36173248 
0.129078299 5.66115808 0.920418859 
1.28932571 4.64777851 -0.148883477 
0.423319727 4.4070344 -1.13707447 
-0.198226094 5.66380167 -0.821278274 
-0.522545695 5.0157814 -1.29441357 
0.575617909 0.644722879 1.15807164 
1.07799482 0.778901458 0.858274221 
0.616661429 0.962962866 -1.26076698 
0.967104793 4.52529955 -0.844510376 
-0.391536951 2.71259618 -0.459107161 
0.0312933624 3.44355464 0.63112545 
0.655268073 0.663097978 -1.13669169 
0.663900733 2.31256032 -0.550380588 
1.00263882 4.24573708 0.551901698 
1.16816974 0.731446266 0.682851076 
-0.359440148 0.507816017 1.08517456 
-1.19015777 1.08144319 -0.74838376 
-1.18246078 1.66622186 -0.238243997 
-0.654649556 3.65437269 -0.445065349 
-0.161772996 2.17127371 -0.919377327 
-0.668573499 5.66391182 -0.424266368 
1.09059167 1.66988587 0.553647339 
-1.20611072 1.50479412 -0.434130102 
-1.32044923 4.86270332 -0.332941771 
0.297694445 5.26895905 -1.3281951 
0.78157264 1.91608524 0.777139902 
0.00456715096 5.38044643 -1.3127861 
-0.0436019339 1.7903136 -1.13851953 
0.638090789 3.49935007 0.23403354 
0.500109613 4.66847992 1.22217786 
1.2411747 1.54255295 -0.184443429 
0.353477061 0.551852226 1.14541531 
0.74033469 2.4453516 0.194147527 
-0.414496183 3.34284186 -0.397025496 
-1.144045 5.11316872 -0.828685403 
-1.07596731 5.57233763 0.385945767 
-0.571787953 4.78407526 -1.23222613 
0.554499388 0.406953007 0.75341171 
-0.231702462 2.06222534 0.971953928 
-1.35829186 5.28624916 -0.0533383712 
-0.329950333 3.33672762 -0.466594934 
0.986319244 1.27774 0.96865207 
0.692698181 5.60692787 -0.861058414 
0.584870875 5.31880283 1.22686505 
0.225256175 3.18242502 0.41937232 
0.079724133 0.384433866 0.276670992 
-1.11656713 4.34571171 0.387918711 
-0.747208595 0.555584431 0.964036822 
0.378628165 2.6799016 -0.49752298 
-0.408436745 2.08555889 0.909213841 
-0.889974236 4.02526331 0.49712202 
-0.0134265684 0.384436965 -0.329532564 
1.2112819 1.20874536 0.661720753 
1.11159825 5.57474136 -0.240857497 
-0.494818002 5.62388325 -0.943820596 
-1.22576237 0.865378261 -0.660131395 
-0.626217604 1.52835631 -1.12027586 
-0.982368767 2.00799441 -0.320991367 
-0.724026501 2.49533415 0.0211187825 
0.114390388 5.66391468 0.743676901 
0.164405212 3.09869456 0.41247195 
0.936256886 2.02265024 -0.439990103 
0.00355238421 3.80238843 -0.8654145 
0.787863791 2.29696655 0.352892369 
-0.613178194 0.38444823 -0.305811733 
-0.88502419 5.31312466 1.0509547 
0.918924272 5.66196251 -0.0454183146 
-0.592359602 0.427550673 -0.79995209 
-0.604816854 2.17230821 -0.738203168 
0.783305883 2.33945465 0.286558986 
-0.174343362 2.66474676 0.594501495 
-0.232419744 0.471165061 -1.04963934 
-0.37686941 0.384432107 -0.494987577 
-0.631667614 5.50056839 -1.06413221 
1.17799556 1.08933651 0.767579615 
0.100610867 1.26167107 -1.33832979 
-0.626340508 3.72018528 0.557264984 
-0.546735048 2.70004559 -0.25132373 
0.994835794 2.06523085 -0.0404298156 
0.475954115 2.31590199 -0.714681923 
-0.378932565 5.64308786 -0.950760722 
-0.516827106 4.95036602 1.28868103 
0.358645499 1.35371375 1.28069794 
-0.00177270966 2.79366374 0.528217316 
-1.12323976 5.57158566 0.20053345 
-1.1907692 4.50823784 -0.393271327 
-1.34841657 4.9866581 -0.310503483 
1.15389562 5.41466951 0.616067767 
-0.227327853 5.66391659 0.298442483 
1.21935713 0.75992012 -0.596264422 
-0.300176173 0.384437561 0.322113663 
0.784641385 4.69890785 1.09048522 
0.513834357 4.2874527 1.04364324 
0.341576546 2.05435181 -0.950411797 
0.769179702 0.874536157 1.16990924 
-0.247752249 4.65568829 1.27927637 
-0.710235834 4.72223377 1.14453578 
-1.11661673 0.530884802 0.362246841 
-0.687146902 5.58766222 0.902169704 
0.863164008 2.27791309 0.0752325282 
-0.681120753 2.55651379 0.0842333585 
-0.999593496 0.441506147 -0.129549295 
-1.10116386 0.498820841 -0.180963755 
0.175275743 0.384437174 -0.43310234 
0.808119655 2.01276827 0.669954598 
0.854999304 5.00339651 1.12145436 
-1.0003916 0.470385671 -0.4152807 
-0.466011852 4.13981056 0.975510895 
-0.596893311 0.515574813 -1.00130045 
1.13546443 1.73669386 0.300352633 
-1.36470675 5.15229177 0.0464630164 
-0.292462885 4.48881388 1.2071929 
-0.515321374 3.95042181 -0.830160141 
0.769061208 3.87214112 -0.522081494 
0.877418876 2.25296712 0.085232839 
-0.340187997 0.487517715 1.05721545 
-0.896767497 5.66112471 -0.245752007 
0.808886588 1.04945731 1.15479422 
0.591436923 2.07698083 -0.822477162 
-0.26121819 5.66391706 -0.0508232638 
1.04074717 0.523857117 -0.543104768 
-0.446241945 4.37107754 -1.11201429 
-0.820805967 5.07736635 1.14990282 
-0.0532355756 3.80402994 0.865039527 
-1.20891762 1.55264103 -0.35247767 
-1.32923341 1.04420376 -0.396933824 
-0.798314571 0.433517635 -0.620194733 
1.15399635 1.59110856 0.484986901 
0.827499032 1.60195827 0.955824852 
1.17061019 0.9538728 0.786809325 
-0.0112813115 2.83602285 -0.503348887 
-0.708523512 5.19529104 1.20713985 
0.040947713 3.4677248 0.646661103 
-0.915113807 0.953778744 -1.07922602 
-0.323945761 2.50969648 0.654018879 
0.478816748 3.23931265 -0.162153095 
-0.4583202 4.97655201 -1.30860841 
-0.163082808 2.098248 -0.962468207 
-0.775670588 1.85673523 -0.830543399 
0.6520046 3.47602844 0.0463708118 
1.21261466 0.666938961 0.477187216 
0.810991704 1.77667665 -0.859121323 
1.24351776 4.55301332 0.232601866 
0.141325891 0.415587902 0.941248238 
-0.584228873 0.838827729 1.25277901 
0.670928836 1.05716181 -1.23264146 
-1.2228179 4.46748304 -0.048407115 
-0.706180871 1.29185891 -1.16923094 
-0.663480937 4.52358246 1.08928752 
-1.10509229 4.73744631 0.784918904 
1.18530262 5.52982998 -0.0679283366 
1.09172058 4.22721767 -0.226861477 
0.435192466 4.63401699 -1.22866988 
-1.21050048 4.92957449 -0.68930167 
-0.876698971 1.90687764 -0.67680949 
-0.0616042167 0.384432644 -0.494446874 
0.30036819 3.30596161 -0.461824 
-0.428702116 3.92624927 -0.855323672 
1.07175684 4.4157896 -0.592437863 
-0.940403461 4.70570612 -0.967556953 
0.0444040149 0.393709868 -0.870257914 
0.647221744 2.05893254 -0.79470396 
-0.288234979 5.14612913 1.35448933 
1.03724837 5.59854698 0.383111656 
-0.349881947 2.41821599 0.70721668 
-1.36277544 0.851190805 -0.0413047001 
-0.639124215 3.46798062 0.130288541 
1.25885081 1.480551 -0.232939914 
-1.10272467 1.82110465 0.255374521 
-1.23356557 4.50246334 0.128689706 
-0.936907232 1.69432402 0.783825338 
0.20602724 4.34596443 -1.15384924 
0.785940349 4.0395031 0.674126744 
0.867162466 1.625337 0.908952534 
-0.923268795 1.90287745 -0.612896979 
0.54195714 5.60602236 -0.95563674 
1.20350122 0.586383402 0.234435663 
-0.895592809 5.36103916 -1.01110506 
-1.26585472 0.986006379 0.606217146 
0.529012799 5.66246986 -0.749182463 
-0.412004948 3.64125371 0.663837492 
-0.593157649 2.68764257 0.0107748788 
0.334204614 0.864722073 1.33627009 
-0.991428852 0.567705393 0.733738065 
-1.34992123 0.943031788 0.325659364 
-0.806233704 2.36668563 0.0748424679 
0.151410177 3.3104074 -0.526702166 
-0.535986066 2.52800417 -0.497226775 
0.808943987 4.02394199 -0.631598651 
1.30414259 0.944061935 0.493903041 
0.921734869 5.6475296 -0.411411166 
-1.29378593 1.40533447 -0.169121519 
-0.479972243 3.2258954 0.130002856 
0.488307416 0.513201296 1.0497098 
-0.826280296 0.46430704 0.698489308 
-0.566336811 5.30520916 -1.24055779 
-0.488739699 5.56005239 -1.05403388 
-0.820357203 5.51969481 0.908302188 
0.248398513 0.384437799 0.616193295 
0.562233567 1.47989357 1.16688251 
0.839896321 1.28298175 1.0878799 
0.687666416 4.75656033 1.16828012 
-1.36308944 1.1161468 0.129527241 
0.876669586 3.91616249 -0.360539734 
0.750450194 3.94646311 0.630033016 
0.292348623 0.521790922 1.12251151 
-0.100328527 5.6639185 -0.209019408 
-0.253406674 5.66391563 -0.433724016 
0.110386707 0.65222311 -1.27630782 
-1.27344 1.05362809 -0.578218997 
0.201669648 0.702317178 -1.2994951 
-0.236114562 5.19991112 1.35527897 
0.303504378 3.3778038 -0.517205894 
0.849472761 5.66296101 0.281448483 
-0.857991338 0.93241024 -1.11819959 
0.564237237 5.66387081 -0.598129749 
0.072396338 2.02239799 -1.01741719 
-0.340742588 3.11489725 -0.300589502 
0.701361835 4.72549343 -1.1503284 
-0.813128233 1.08978772 -1.14778543 
0.205238849 2.80159926 -0.488537252 
-0.208771139 0.445058227 1.00145125 
0.29318127 5.55211258 1.13146734 
1.27704036 1.09821832 -0.554725766 
-0.467355698 5.66391659 -0.0877499059 
0.874534726 1.54591942 0.947349966 
-1.01879013 4.99571753 0.985122025 
1.35099673 4.79912376 -0.0510953888 
1.36477113 1.05899251 0.0163919833 
0.847702146 2.2018981 -0.366932184 
1.00729573 1.40519392 -0.887120962 
0.455569565 0.477016002 0.999321938 
1.07562041 1.91219091 -0.0794659555 
-0.320100278 0.38443619 -0.0343449228 
0.887977242 5.41000271 0.975881934 
0.449018955 0.806495547 1.29139471 
-1.05743742 5.13797665 -0.946241319 
1.09480357 1.13153958 0.878377676 
1.33919573 5.30877304 -0.176344365 
-0.320443779 0.384436339 -0.11774829 
-0.504929841 0.384532541 0.545809865 
1.34138155 0.826942205 0.270580739 
-1.14535999 0.518381417 0.0412881523 
-0.323117077 4.04808521 -0.970813751 
-1.000314 4.13948154 -0.400264502 
0.406201184 3.38227606 0.443500936 
-0.768305182 3.66535783 0.146709159 
-1.1009022 0.937667847 -0.88301301 
0.323927402 0.551619589 1.15308595 
0.279211402 4.58544636 1.24788749 
-0.335303515 2.53684068 -0.629650891 
0.591264904 0.384446502 -0.349347234 
-0.757066786 0.595620394 -1.00800121 
-0.572232068 2.57152581 -0.397541821 
-1.153929 4.49262524 0.489630133 
1.12846899 0.646309376 0.643009424 
-0.303091884 0.384435058 0.241046593 
0.950190783 0.906038761 1.04716897 
0.745375395 4.29515219 -0.90609777 
0.968338609 4.4591651 -0.796936274 
-0.873984277 4.75886059 -1.04658782 
1.17637897 4.93165922 -0.754697204 
0.89093262 0.5202384 0.764211297 
0.842057645 1.56965244 -0.961570084 
-0.290390193 0.841606915 -1.34105313 
0.367931753 5.07515812 1.33921063 
0.00546282995 3.2481575 0.506821513 
-0.50821209 2.77420259 0.202118859 
0.612967014 5.66391325 0.149244934 
0.372236699 1.33499146 -1.28325117 
-0.885928273 1.83453965 0.729929328 
0.339295983 0.665341377 1.25011969 
-0.795709848 2.38541293 0.00175965345 
0.352890402 5.66391563 0.468087852 
1.02864051 4.82093906 0.922231615 
0.803331316 0.591626823 0.969189584 
-0.656369328 3.97530293 0.750640929 
0.295620024 0.38443777 0.46945864 
-0.118479326 4.00086498 0.979919553 
0.251841933 5.32283592 -1.31731129 
0.0897529498 2.31858945 -0.836671174 
1.1571002 0.763682663 -0.731999815 
0.161484599 1.53044748 -1.24850082 
1.12049198 1.81063652 0.184334517 
0.691817403 3.87833786 0.640176892 
0.299374104 5.66391325 0.13710925 
-0.511473417 2.81335902 0.0773585141 
0.601880312 2.17728019 -0.736440539 
1.22220647 5.22986126 -0.661455989 
0.234389544 2.76472068 0.504301965 
0.533691406 0.384432137 0.370467186 
-1.18691218 1.68228066 0.155563399 
-0.63471961 4.49728155 1.09134352 
-0.187063217 3.9282577 -0.929593682 
-0.478571385 4.44317341 1.13549292 
0.50213325 2.19033647 0.794682324 
-0.319332749 2.60353875 0.589469373 
1.35842109 5.2121954 0.195697069 
0.890265286 4.16012526 0.647297502 
-0.268033922 1.17590833 -1.34244525 
-1.35085678 4.93552017 -0.25856632 
1.36331964 0.904419243 0.145821184 
0.947337627 0.44707799 0.420224488 
-0.0962744057 0.384435326 -0.589137793 
-0.657261848 5.52308178 -1.02395082 
1.07201195 0.671180725 -0.770162463 
-0.404797375 2.72969198 -0.432086825 
1.13471174 1.32922626 0.748769343 
-0.435077816 1.66263115 -1.13762033 
0.0866364837 3.95776391 0.957929552 
-0.42691496 4.95149183 1.31373584 
-0.320161819 2.57050657 0.612713993 
0.566039026 1.38081336 1.20300961 
-1.26001406 5.14235973 0.61277312 
-1.31710863 4.95927763 -0.419429183 
-0.53108573 0.384432316 0.194071382 
0.403676748 0.384432018 0.221838146 
-0.387560248 3.2914896 0.376820505 
0.236527979 3.00788021 0.375511169 
