ply
format ascii 1.0
comment created by gply, a Houdini tool.
comment converted from .[b]geo
comment for more information about Houdini, try:
comment www.sidefx.com
element vertex 1460
property float x
property float y
property float z
element face 0
property list uchar int vertex_indices
end_header
1.89999998 2.35000014 -1.10000002 
1.89999998 2.35000014 -1.05000007 
1.89999998 2.29999995 -1 
1.89999998 2.29999995 -0.949999988 
1.89999998 2.35000014 -1 
1.89999998 2.35000014 -0.949999988 
1.89999998 2.29999995 -0.900000036 
1.89999998 2.29999995 -0.850000024 
1.89999998 2.35000014 -0.900000036 
1.89999998 2.35000014 -0.850000024 
1.85000002 1.60000002 -0.800000012 
1.85000002 1.60000002 -0.75 
1.85000002 1.64999998 -0.800000012 
1.85000002 1.64999998 -0.75 
1.85000002 1.60000002 -0.699999988 
1.85000002 1.60000002 -0.650000036 
1.85000002 1.64999998 -0.699999988 
1.85000002 1.64999998 -0.650000036 
1.85000002 1.60000002 -0.600000024 
1.85000002 1.60000002 -0.550000012 
1.85000002 1.64999998 -0.600000024 
1.85000002 1.64999998 -0.550000012 
1.85000002 1.60000002 -0.5 
1.85000002 1.60000002 -0.450000018 
1.85000002 1.64999998 -0.5 
1.85000002 1.64999998 -0.450000018 
1.85000002 1.60000002 -0.400000006 
1.85000002 1.60000002 -0.349999994 
1.85000002 1.64999998 -0.400000006 
1.85000002 1.64999998 -0.349999994 
1.85000002 1.60000002 -0.300000012 
1.85000002 1.60000002 -0.25 
1.85000002 1.64999998 -0.300000012 
1.85000002 1.64999998 -0.25 
1.85000002 1.60000002 -0.200000003 
1.85000002 1.60000002 -0.150000006 
1.85000002 1.64999998 -0.200000003 
1.85000002 1.64999998 -0.150000006 
1.85000002 1.60000002 -0.100000001 
1.85000002 1.60000002 -0.0500000007 
1.85000002 1.64999998 -0.100000001 
1.85000002 1.64999998 -0.0500000007 
1.85000002 1.70000005 -0.800000012 
1.85000002 1.70000005 -0.75 
1.85000002 1.75 -0.800000012 
1.85000002 1.75 -0.75 
1.85000002 1.70000005 -0.699999988 
1.85000002 1.70000005 -0.650000036 
1.85000002 1.75 -0.699999988 
1.85000002 1.75 -0.650000036 
1.85000002 1.70000005 -0.600000024 
1.85000002 1.70000005 -0.550000012 
1.85000002 1.75 -0.600000024 
1.85000002 1.75 -0.550000012 
1.85000002 1.70000005 -0.5 
1.85000002 1.70000005 -0.450000018 
1.85000002 1.75 -0.5 
1.85000002 1.75 -0.450000018 
1.85000002 1.70000005 -0.400000006 
1.85000002 1.70000005 -0.349999994 
1.85000002 1.75 -0.400000006 
1.85000002 1.75 -0.349999994 
1.85000002 1.70000005 -0.300000012 
1.85000002 1.70000005 -0.25 
1.85000002 1.75 -0.300000012 
1.85000002 1.75 -0.25 
1.85000002 1.70000005 -0.200000003 
1.85000002 1.70000005 -0.150000006 
1.85000002 1.75 -0.200000003 
1.85000002 1.75 -0.150000006 
1.85000002 1.70000005 -0.100000001 
1.85000002 1.70000005 -0.0500000007 
1.85000002 1.75 -0.100000001 
1.85000002 1.75 -0.0500000007 
1.85000002 1.80000007 -0.800000012 
1.85000002 1.80000007 -0.75 
1.85000002 1.85000002 -0.800000012 
1.85000002 1.85000002 -0.75 
1.85000002 1.80000007 -0.699999988 
1.85000002 1.80000007 -0.650000036 
1.85000002 1.85000002 -0.699999988 
1.85000002 1.85000002 -0.650000036 
1.85000002 1.80000007 -0.600000024 
1.85000002 1.80000007 -0.550000012 
1.85000002 1.85000002 -0.600000024 
1.85000002 1.85000002 -0.550000012 
1.85000002 1.80000007 -0.5 
1.85000002 1.80000007 -0.450000018 
1.85000002 1.85000002 -0.5 
1.85000002 1.85000002 -0.450000018 
1.85000002 1.80000007 -0.400000006 
1.85000002 1.80000007 -0.349999994 
1.85000002 1.85000002 -0.400000006 
1.85000002 1.85000002 -0.349999994 
1.85000002 1.80000007 -0.300000012 
1.85000002 1.80000007 -0.25 
1.85000002 1.85000002 -0.300000012 
1.85000002 1.85000002 -0.25 
1.85000002 1.80000007 -0.200000003 
1.85000002 1.80000007 -0.150000006 
1.85000002 1.85000002 -0.200000003 
1.85000002 1.85000002 -0.150000006 
1.85000002 1.80000007 -0.100000001 
1.85000002 1.80000007 -0.0500000007 
1.85000002 1.85000002 -0.100000001 
1.85000002 1.85000002 -0.0500000007 
1.85000002 1.89999998 -0.800000012 
1.85000002 1.89999998 -0.75 
1.85000002 1.95000005 -0.800000012 
1.85000002 1.95000005 -0.75 
1.85000002 1.89999998 -0.699999988 
1.85000002 1.89999998 -0.650000036 
1.85000002 1.95000005 -0.699999988 
1.85000002 1.95000005 -0.650000036 
1.85000002 1.89999998 -0.600000024 
1.85000002 1.89999998 -0.550000012 
1.85000002 1.95000005 -0.600000024 
1.85000002 1.95000005 -0.550000012 
1.85000002 1.89999998 -0.5 
1.85000002 1.89999998 -0.450000018 
1.85000002 1.95000005 -0.5 
1.85000002 1.95000005 -0.450000018 
1.85000002 1.89999998 -0.400000006 
1.85000002 1.89999998 -0.349999994 
1.85000002 1.95000005 -0.400000006 
1.85000002 1.95000005 -0.349999994 
1.85000002 1.89999998 -0.300000012 
1.85000002 1.89999998 -0.25 
1.85000002 1.95000005 -0.300000012 
1.85000002 1.95000005 -0.25 
1.85000002 1.89999998 -0.200000003 
1.85000002 1.89999998 -0.150000006 
1.85000002 1.95000005 -0.200000003 
1.85000002 1.95000005 -0.150000006 
1.85000002 1.89999998 -0.100000001 
1.85000002 1.89999998 -0.0500000007 
1.85000002 1.95000005 -0.100000001 
1.85000002 1.95000005 -0.0500000007 
1.85000002 2 -0.800000012 
1.85000002 2 -0.75 
1.85000002 2.04999995 -0.800000012 
1.85000002 2.04999995 -0.75 
1.85000002 2 -0.699999988 
1.85000002 2 -0.650000036 
1.85000002 2.04999995 -0.699999988 
1.85000002 2.04999995 -0.650000036 
1.85000002 2 -0.600000024 
1.85000002 2 -0.550000012 
1.85000002 2.04999995 -0.600000024 
1.85000002 2.04999995 -0.550000012 
1.85000002 2 -0.5 
1.85000002 2 -0.450000018 
1.85000002 2.04999995 -0.5 
1.85000002 2.04999995 -0.450000018 
1.85000002 2 -0.400000006 
1.85000002 2 -0.349999994 
1.85000002 2.04999995 -0.400000006 
1.85000002 2.04999995 -0.349999994 
1.85000002 2 -0.300000012 
1.85000002 2 -0.25 
1.85000002 2.04999995 -0.300000012 
1.85000002 2.04999995 -0.25 
1.85000002 2 -0.200000003 
1.85000002 2 -0.150000006 
1.85000002 2.04999995 -0.200000003 
1.85000002 2.04999995 -0.150000006 
1.85000002 2 -0.100000001 
1.85000002 2 -0.0500000007 
1.85000002 2.04999995 -0.100000001 
1.85000002 2.04999995 -0.0500000007 
1.85000002 2.10000014 -0.800000012 
1.85000002 2.10000014 -0.75 
1.85000002 2.1500001 -0.800000012 
1.85000002 2.1500001 -0.75 
1.85000002 2.10000014 -0.699999988 
1.85000002 2.10000014 -0.650000036 
1.85000002 2.1500001 -0.699999988 
1.85000002 2.1500001 -0.650000036 
1.85000002 2.10000014 -0.600000024 
1.85000002 2.10000014 -0.550000012 
1.85000002 2.1500001 -0.600000024 
1.85000002 2.1500001 -0.550000012 
1.85000002 2.10000014 -0.5 
1.85000002 2.10000014 -0.450000018 
1.85000002 2.1500001 -0.5 
1.85000002 2.1500001 -0.450000018 
1.85000002 2.10000014 -0.400000006 
1.85000002 2.10000014 -0.349999994 
1.85000002 2.1500001 -0.400000006 
1.85000002 2.1500001 -0.349999994 
1.85000002 2.10000014 -0.300000012 
1.85000002 2.10000014 -0.25 
1.85000002 2.1500001 -0.300000012 
1.85000002 2.1500001 -0.25 
1.85000002 2.10000014 -0.200000003 
1.85000002 2.10000014 -0.150000006 
1.85000002 2.1500001 -0.200000003 
1.85000002 2.1500001 -0.150000006 
1.85000002 2.10000014 -0.100000001 
1.85000002 2.10000014 -0.0500000007 
1.85000002 2.1500001 -0.100000001 
1.85000002 2.1500001 -0.0500000007 
1.85000002 2.20000005 -0.800000012 
1.85000002 2.20000005 -0.75 
1.85000002 2.25 -0.800000012 
1.85000002 2.25 -0.75 
1.85000002 2.20000005 -0.699999988 
1.85000002 2.20000005 -0.650000036 
1.85000002 2.25 -0.699999988 
1.85000002 2.25 -0.650000036 
1.85000002 2.20000005 -0.600000024 
1.85000002 2.20000005 -0.550000012 
1.85000002 2.25 -0.600000024 
1.85000002 2.25 -0.550000012 
1.85000002 2.20000005 -0.5 
1.85000002 2.20000005 -0.450000018 
1.85000002 2.25 -0.5 
1.85000002 2.25 -0.450000018 
1.85000002 2.20000005 -0.400000006 
1.85000002 2.20000005 -0.349999994 
1.85000002 2.25 -0.400000006 
1.85000002 2.25 -0.349999994 
1.85000002 2.20000005 -0.300000012 
1.85000002 2.20000005 -0.25 
1.85000002 2.25 -0.300000012 
1.85000002 2.25 -0.25 
1.85000002 2.20000005 -0.200000003 
1.85000002 2.20000005 -0.150000006 
1.85000002 2.25 -0.200000003 
1.85000002 2.25 -0.150000006 
1.85000002 2.20000005 -0.100000001 
1.85000002 2.20000005 -0.0500000007 
1.85000002 2.25 -0.100000001 
1.85000002 2.25 -0.0500000007 
1.85000002 2.29999995 -0.800000012 
1.85000002 2.29999995 -0.75 
1.85000002 2.35000014 -0.800000012 
1.85000002 2.35000014 -0.75 
1.85000002 2.29999995 -0.699999988 
1.85000002 2.29999995 -0.650000036 
1.85000002 2.35000014 -0.699999988 
1.85000002 2.35000014 -0.650000036 
1.85000002 2.29999995 -0.600000024 
1.85000002 2.29999995 -0.550000012 
1.85000002 2.35000014 -0.600000024 
1.85000002 2.35000014 -0.550000012 
1.85000002 2.29999995 -0.5 
1.85000002 2.29999995 -0.450000018 
1.85000002 2.35000014 -0.5 
1.85000002 2.35000014 -0.450000018 
1.85000002 2.29999995 -0.400000006 
1.85000002 2.29999995 -0.349999994 
1.85000002 2.35000014 -0.400000006 
1.85000002 2.35000014 -0.349999994 
1.85000002 2.29999995 -0.300000012 
1.85000002 2.29999995 -0.25 
1.85000002 2.35000014 -0.300000012 
1.85000002 2.35000014 -0.25 
1.85000002 2.29999995 -0.200000003 
1.85000002 2.29999995 -0.150000006 
1.85000002 2.35000014 -0.200000003 
1.85000002 2.35000014 -0.150000006 
1.85000002 2.29999995 -0.100000001 
1.85000002 2.29999995 -0.0500000007 
1.85000002 2.35000014 -0.100000001 
1.85000002 2.35000014 -0.0500000007 
1.89999998 1.60000002 -0.800000012 
1.89999998 1.60000002 -0.75 
1.89999998 1.64999998 -0.800000012 
1.89999998 1.64999998 -0.75 
1.89999998 1.60000002 -0.699999988 
1.89999998 1.60000002 -0.650000036 
1.89999998 1.64999998 -0.699999988 
1.89999998 1.64999998 -0.650000036 
1.89999998 1.60000002 -0.600000024 
1.89999998 1.60000002 -0.550000012 
1.89999998 1.64999998 -0.600000024 
1.89999998 1.64999998 -0.550000012 
1.89999998 1.60000002 -0.5 
1.89999998 1.60000002 -0.450000018 
1.89999998 1.64999998 -0.5 
1.89999998 1.64999998 -0.450000018 
1.89999998 1.60000002 -0.400000006 
1.89999998 1.60000002 -0.349999994 
1.89999998 1.64999998 -0.400000006 
1.89999998 1.64999998 -0.349999994 
1.89999998 1.60000002 -0.300000012 
1.89999998 1.60000002 -0.25 
1.89999998 1.64999998 -0.300000012 
1.89999998 1.64999998 -0.25 
1.89999998 1.60000002 -0.200000003 
1.89999998 1.60000002 -0.150000006 
1.89999998 1.64999998 -0.200000003 
1.89999998 1.64999998 -0.150000006 
1.89999998 1.60000002 -0.100000001 
1.89999998 1.60000002 -0.0500000007 
1.89999998 1.64999998 -0.100000001 
1.89999998 1.64999998 -0.0500000007 
1.89999998 1.70000005 -0.800000012 
1.89999998 1.70000005 -0.75 
1.89999998 1.75 -0.800000012 
1.89999998 1.75 -0.75 
1.89999998 1.70000005 -0.699999988 
1.89999998 1.70000005 -0.650000036 
1.89999998 1.75 -0.699999988 
1.89999998 1.75 -0.650000036 
1.89999998 1.70000005 -0.600000024 
1.89999998 1.70000005 -0.550000012 
1.89999998 1.75 -0.600000024 
1.89999998 1.75 -0.550000012 
1.89999998 1.70000005 -0.5 
1.89999998 1.70000005 -0.450000018 
1.89999998 1.75 -0.5 
1.89999998 1.75 -0.450000018 
1.89999998 1.70000005 -0.400000006 
1.89999998 1.70000005 -0.349999994 
1.89999998 1.75 -0.400000006 
1.89999998 1.75 -0.349999994 
1.89999998 1.70000005 -0.300000012 
1.89999998 1.70000005 -0.25 
1.89999998 1.75 -0.300000012 
1.89999998 1.75 -0.25 
1.89999998 1.70000005 -0.200000003 
1.89999998 1.70000005 -0.150000006 
1.89999998 1.75 -0.200000003 
1.89999998 1.75 -0.150000006 
1.89999998 1.70000005 -0.100000001 
1.89999998 1.70000005 -0.0500000007 
1.89999998 1.75 -0.100000001 
1.89999998 1.75 -0.0500000007 
1.89999998 1.80000007 -0.800000012 
1.89999998 1.80000007 -0.75 
1.89999998 1.85000002 -0.800000012 
1.89999998 1.85000002 -0.75 
1.89999998 1.80000007 -0.699999988 
1.89999998 1.80000007 -0.650000036 
1.89999998 1.85000002 -0.699999988 
1.89999998 1.85000002 -0.650000036 
1.89999998 1.80000007 -0.600000024 
1.89999998 1.80000007 -0.550000012 
1.89999998 1.85000002 -0.600000024 
1.89999998 1.85000002 -0.550000012 
1.89999998 1.80000007 -0.5 
1.89999998 1.80000007 -0.450000018 
1.89999998 1.85000002 -0.5 
1.89999998 1.85000002 -0.450000018 
1.89999998 1.80000007 -0.400000006 
1.89999998 1.80000007 -0.349999994 
1.89999998 1.85000002 -0.400000006 
1.89999998 1.85000002 -0.349999994 
1.89999998 1.80000007 -0.300000012 
1.89999998 1.80000007 -0.25 
1.89999998 1.85000002 -0.300000012 
1.89999998 1.85000002 -0.25 
1.89999998 1.80000007 -0.200000003 
1.89999998 1.80000007 -0.150000006 
1.89999998 1.85000002 -0.200000003 
1.89999998 1.85000002 -0.150000006 
1.89999998 1.80000007 -0.100000001 
1.89999998 1.80000007 -0.0500000007 
1.89999998 1.85000002 -0.100000001 
1.89999998 1.85000002 -0.0500000007 
1.89999998 1.89999998 -0.800000012 
1.89999998 1.89999998 -0.75 
1.89999998 1.95000005 -0.800000012 
1.89999998 1.95000005 -0.75 
1.89999998 1.89999998 -0.699999988 
1.89999998 1.89999998 -0.650000036 
1.89999998 1.95000005 -0.699999988 
1.89999998 1.95000005 -0.650000036 
1.89999998 1.89999998 -0.600000024 
1.89999998 1.89999998 -0.550000012 
1.89999998 1.95000005 -0.600000024 
1.89999998 1.95000005 -0.550000012 
1.89999998 1.89999998 -0.5 
1.89999998 1.89999998 -0.450000018 
1.89999998 1.95000005 -0.5 
1.89999998 1.95000005 -0.450000018 
1.89999998 1.89999998 -0.400000006 
1.89999998 1.89999998 -0.349999994 
1.89999998 1.95000005 -0.400000006 
1.89999998 1.95000005 -0.349999994 
1.89999998 1.89999998 -0.300000012 
1.89999998 1.89999998 -0.25 
1.89999998 1.95000005 -0.300000012 
1.89999998 1.95000005 -0.25 
1.89999998 1.89999998 -0.200000003 
1.89999998 1.89999998 -0.150000006 
1.89999998 1.95000005 -0.200000003 
1.89999998 1.95000005 -0.150000006 
1.89999998 1.89999998 -0.100000001 
1.89999998 1.89999998 -0.0500000007 
1.89999998 1.95000005 -0.100000001 
1.89999998 1.95000005 -0.0500000007 
1.89999998 2 -0.800000012 
1.89999998 2 -0.75 
1.89999998 2.04999995 -0.800000012 
1.89999998 2.04999995 -0.75 
1.89999998 2 -0.699999988 
1.89999998 2 -0.650000036 
1.89999998 2.04999995 -0.699999988 
1.89999998 2.04999995 -0.650000036 
1.89999998 2 -0.600000024 
1.89999998 2 -0.550000012 
1.89999998 2.04999995 -0.600000024 
1.89999998 2.04999995 -0.550000012 
1.89999998 2 -0.5 
1.89999998 2 -0.450000018 
1.89999998 2.04999995 -0.5 
1.89999998 2.04999995 -0.450000018 
1.89999998 2 -0.400000006 
1.89999998 2 -0.349999994 
1.89999998 2.04999995 -0.400000006 
1.89999998 2.04999995 -0.349999994 
1.89999998 2 -0.300000012 
1.89999998 2 -0.25 
1.89999998 2.04999995 -0.300000012 
1.89999998 2.04999995 -0.25 
1.89999998 2 -0.200000003 
1.89999998 2 -0.150000006 
1.89999998 2.04999995 -0.200000003 
1.89999998 2.04999995 -0.150000006 
1.89999998 2 -0.100000001 
1.89999998 2 -0.0500000007 
1.89999998 2.04999995 -0.100000001 
1.89999998 2.04999995 -0.0500000007 
1.89999998 2.10000014 -0.800000012 
1.89999998 2.10000014 -0.75 
1.89999998 2.1500001 -0.800000012 
1.89999998 2.1500001 -0.75 
1.89999998 2.10000014 -0.699999988 
1.89999998 2.10000014 -0.650000036 
1.89999998 2.1500001 -0.699999988 
1.89999998 2.1500001 -0.650000036 
1.89999998 2.10000014 -0.600000024 
1.89999998 2.10000014 -0.550000012 
1.89999998 2.1500001 -0.600000024 
1.89999998 2.1500001 -0.550000012 
1.89999998 2.10000014 -0.5 
1.89999998 2.10000014 -0.450000018 
1.89999998 2.1500001 -0.5 
1.89999998 2.1500001 -0.450000018 
1.89999998 2.10000014 -0.400000006 
1.89999998 2.10000014 -0.349999994 
1.89999998 2.1500001 -0.400000006 
1.89999998 2.1500001 -0.349999994 
1.89999998 2.10000014 -0.300000012 
1.89999998 2.10000014 -0.25 
1.89999998 2.1500001 -0.300000012 
1.89999998 2.1500001 -0.25 
1.89999998 2.10000014 -0.200000003 
1.89999998 2.10000014 -0.150000006 
1.89999998 2.1500001 -0.200000003 
1.89999998 2.1500001 -0.150000006 
1.89999998 2.10000014 -0.100000001 
1.89999998 2.10000014 -0.0500000007 
1.89999998 2.1500001 -0.100000001 
1.89999998 2.1500001 -0.0500000007 
1.89999998 2.20000005 -0.800000012 
1.89999998 2.20000005 -0.75 
1.89999998 2.25 -0.800000012 
1.89999998 2.25 -0.75 
1.89999998 2.20000005 -0.699999988 
1.89999998 2.20000005 -0.650000036 
1.89999998 2.25 -0.699999988 
1.89999998 2.25 -0.650000036 
1.89999998 2.20000005 -0.600000024 
1.89999998 2.20000005 -0.550000012 
1.89999998 2.25 -0.600000024 
1.89999998 2.25 -0.550000012 
1.89999998 2.20000005 -0.5 
1.89999998 2.20000005 -0.450000018 
1.89999998 2.25 -0.5 
1.89999998 2.25 -0.450000018 
1.89999998 2.20000005 -0.400000006 
1.89999998 2.20000005 -0.349999994 
1.89999998 2.25 -0.400000006 
1.89999998 2.25 -0.349999994 
1.89999998 2.20000005 -0.300000012 
1.89999998 2.20000005 -0.25 
1.89999998 2.25 -0.300000012 
1.89999998 2.25 -0.25 
1.89999998 2.20000005 -0.200000003 
1.89999998 2.20000005 -0.150000006 
1.89999998 2.25 -0.200000003 
1.89999998 2.25 -0.150000006 
1.89999998 2.20000005 -0.100000001 
1.89999998 2.20000005 -0.0500000007 
1.89999998 2.25 -0.100000001 
1.89999998 2.25 -0.0500000007 
1.89999998 2.29999995 -0.800000012 
1.89999998 2.29999995 -0.75 
1.89999998 2.35000014 -0.800000012 
1.89999998 2.35000014 -0.75 
1.89999998 2.29999995 -0.699999988 
1.89999998 2.29999995 -0.650000036 
1.89999998 2.35000014 -0.699999988 
1.89999998 2.35000014 -0.650000036 
1.89999998 2.29999995 -0.600000024 
1.89999998 2.29999995 -0.550000012 
1.89999998 2.35000014 -0.600000024 
1.89999998 2.35000014 -0.550000012 
1.89999998 2.29999995 -0.5 
1.89999998 2.29999995 -0.450000018 
1.89999998 2.35000014 -0.5 
1.89999998 2.35000014 -0.450000018 
1.89999998 2.29999995 -0.400000006 
1.89999998 2.29999995 -0.349999994 
1.89999998 2.35000014 -0.400000006 
1.89999998 2.35000014 -0.349999994 
1.89999998 2.29999995 -0.300000012 
1.89999998 2.29999995 -0.25 
1.89999998 2.35000014 -0.300000012 
1.89999998 2.35000014 -0.25 
1.89999998 2.29999995 -0.200000003 
1.89999998 2.29999995 -0.150000006 
1.89999998 2.35000014 -0.200000003 
1.89999998 2.35000014 -0.150000006 
1.89999998 2.29999995 -0.100000001 
1.89999998 2.29999995 -0.0500000007 
1.89999998 2.35000014 -0.100000001 
1.89999998 2.35000014 -0.0500000007 
1.60000002 2.4000001 -1.89999998 
1.60000002 2.4000001 -1.85000002 
1.60000002 2.45000005 -1.89999998 
1.60000002 2.45000005 -1.85000002 
1.64999998 2.4000001 -1.89999998 
1.64999998 2.4000001 -1.85000002 
1.64999998 2.45000005 -1.89999998 
1.64999998 2.45000005 -1.85000002 
1.60000002 2.5 -1.89999998 
1.60000002 2.5 -1.85000002 
1.60000002 2.54999995 -1.89999998 
1.60000002 2.54999995 -1.85000002 
1.64999998 2.5 -1.89999998 
1.64999998 2.5 -1.85000002 
1.64999998 2.54999995 -1.89999998 
1.64999998 2.54999995 -1.85000002 
1.60000002 2.60000014 -1.89999998 
1.60000002 2.60000014 -1.85000002 
1.60000002 2.6500001 -1.89999998 
1.60000002 2.6500001 -1.85000002 
1.64999998 2.60000014 -1.89999998 
1.64999998 2.60000014 -1.85000002 
1.64999998 2.6500001 -1.89999998 
1.64999998 2.6500001 -1.85000002 
1.60000002 2.70000005 -1.89999998 
1.60000002 2.70000005 -1.85000002 
1.60000002 2.75 -1.89999998 
1.60000002 2.75 -1.85000002 
1.64999998 2.70000005 -1.89999998 
1.64999998 2.70000005 -1.85000002 
1.64999998 2.75 -1.89999998 
1.64999998 2.75 -1.85000002 
1.60000002 2.79999995 -1.89999998 
1.60000002 2.79999995 -1.85000002 
1.60000002 2.85000014 -1.89999998 
1.60000002 2.85000014 -1.85000002 
1.64999998 2.79999995 -1.89999998 
1.64999998 2.79999995 -1.85000002 
1.64999998 2.85000014 -1.89999998 
1.64999998 2.85000014 -1.85000002 
1.60000002 2.9000001 -1.89999998 
1.60000002 2.9000001 -1.85000002 
1.60000002 2.95000005 -1.89999998 
1.60000002 2.95000005 -1.85000002 
1.64999998 2.9000001 -1.89999998 
1.64999998 2.9000001 -1.85000002 
1.64999998 2.95000005 -1.89999998 
1.64999998 2.95000005 -1.85000002 
1.60000002 3 -1.89999998 
1.60000002 3 -1.85000002 
1.60000002 3.04999995 -1.89999998 
1.60000002 3.04999995 -1.85000002 
1.64999998 3 -1.89999998 
1.64999998 3 -1.85000002 
1.64999998 3.04999995 -1.89999998 
1.64999998 3.04999995 -1.85000002 
1.70000005 2.4000001 -1.89999998 
1.70000005 2.4000001 -1.85000002 
1.70000005 2.45000005 -1.89999998 
1.70000005 2.45000005 -1.85000002 
1.75 2.4000001 -1.89999998 
1.75 2.4000001 -1.85000002 
1.75 2.45000005 -1.89999998 
1.75 2.45000005 -1.85000002 
1.70000005 2.5 -1.89999998 
1.70000005 2.5 -1.85000002 
1.70000005 2.54999995 -1.89999998 
1.70000005 2.54999995 -1.85000002 
1.75 2.5 -1.89999998 
1.75 2.5 -1.85000002 
1.75 2.54999995 -1.89999998 
1.75 2.54999995 -1.85000002 
1.70000005 2.60000014 -1.89999998 
1.70000005 2.60000014 -1.85000002 
1.70000005 2.6500001 -1.89999998 
1.70000005 2.6500001 -1.85000002 
1.75 2.60000014 -1.89999998 
1.75 2.60000014 -1.85000002 
1.75 2.6500001 -1.89999998 
1.75 2.6500001 -1.85000002 
1.70000005 2.70000005 -1.89999998 
1.70000005 2.70000005 -1.85000002 
1.70000005 2.75 -1.89999998 
1.70000005 2.75 -1.85000002 
1.75 2.70000005 -1.89999998 
1.75 2.70000005 -1.85000002 
1.75 2.75 -1.89999998 
1.75 2.75 -1.85000002 
1.70000005 2.79999995 -1.89999998 
1.70000005 2.79999995 -1.85000002 
1.70000005 2.85000014 -1.89999998 
1.70000005 2.85000014 -1.85000002 
1.75 2.79999995 -1.89999998 
1.75 2.79999995 -1.85000002 
1.75 2.85000014 -1.89999998 
1.75 2.85000014 -1.85000002 
1.70000005 2.9000001 -1.89999998 
1.70000005 2.9000001 -1.85000002 
1.70000005 2.95000005 -1.89999998 
1.70000005 2.95000005 -1.85000002 
1.75 2.9000001 -1.89999998 
1.75 2.9000001 -1.85000002 
1.75 2.95000005 -1.89999998 
1.75 2.95000005 -1.85000002 
1.70000005 3 -1.89999998 
1.70000005 3 -1.85000002 
1.70000005 3.04999995 -1.89999998 
1.70000005 3.04999995 -1.85000002 
1.75 3 -1.89999998 
1.75 3 -1.85000002 
1.75 3.04999995 -1.89999998 
1.75 3.04999995 -1.85000002 
1.80000007 2.4000001 -1.89999998 
1.80000007 2.4000001 -1.85000002 
1.80000007 2.45000005 -1.89999998 
1.80000007 2.45000005 -1.85000002 
1.85000002 2.4000001 -1.89999998 
1.85000002 2.4000001 -1.85000002 
1.85000002 2.45000005 -1.89999998 
1.85000002 2.45000005 -1.85000002 
1.80000007 2.4000001 -1.80000007 
1.80000007 2.45000005 -1.80000007 
1.85000002 2.4000001 -1.80000007 
1.85000002 2.4000001 -1.75 
1.85000002 2.45000005 -1.80000007 
1.85000002 2.45000005 -1.75 
1.85000002 2.4000001 -1.70000005 
1.85000002 2.4000001 -1.64999998 
1.85000002 2.45000005 -1.70000005 
1.85000002 2.45000005 -1.64999998 
1.80000007 2.5 -1.89999998 
1.80000007 2.5 -1.85000002 
1.80000007 2.54999995 -1.89999998 
1.80000007 2.54999995 -1.85000002 
1.85000002 2.5 -1.89999998 
1.85000002 2.5 -1.85000002 
1.85000002 2.54999995 -1.89999998 
1.85000002 2.54999995 -1.85000002 
1.80000007 2.5 -1.80000007 
1.80000007 2.54999995 -1.80000007 
1.85000002 2.5 -1.80000007 
1.85000002 2.5 -1.75 
1.85000002 2.54999995 -1.80000007 
1.85000002 2.54999995 -1.75 
1.85000002 2.5 -1.70000005 
1.85000002 2.5 -1.64999998 
1.85000002 2.54999995 -1.70000005 
1.85000002 2.54999995 -1.64999998 
1.80000007 2.60000014 -1.89999998 
1.80000007 2.60000014 -1.85000002 
1.80000007 2.6500001 -1.89999998 
1.80000007 2.6500001 -1.85000002 
1.85000002 2.60000014 -1.89999998 
1.85000002 2.60000014 -1.85000002 
1.85000002 2.6500001 -1.89999998 
1.85000002 2.6500001 -1.85000002 
1.80000007 2.60000014 -1.80000007 
1.80000007 2.6500001 -1.80000007 
1.85000002 2.60000014 -1.80000007 
1.85000002 2.60000014 -1.75 
1.85000002 2.6500001 -1.80000007 
1.85000002 2.6500001 -1.75 
1.85000002 2.60000014 -1.70000005 
1.85000002 2.60000014 -1.64999998 
1.85000002 2.6500001 -1.70000005 
1.85000002 2.6500001 -1.64999998 
1.80000007 2.70000005 -1.89999998 
1.80000007 2.70000005 -1.85000002 
1.80000007 2.75 -1.89999998 
1.80000007 2.75 -1.85000002 
1.85000002 2.70000005 -1.89999998 
1.85000002 2.70000005 -1.85000002 
1.85000002 2.75 -1.89999998 
1.85000002 2.75 -1.85000002 
1.80000007 2.70000005 -1.80000007 
1.80000007 2.75 -1.80000007 
1.85000002 2.70000005 -1.80000007 
1.85000002 2.70000005 -1.75 
1.85000002 2.75 -1.80000007 
1.85000002 2.75 -1.75 
1.85000002 2.70000005 -1.70000005 
1.85000002 2.70000005 -1.64999998 
1.85000002 2.75 -1.70000005 
1.85000002 2.75 -1.64999998 
1.80000007 2.79999995 -1.89999998 
1.80000007 2.79999995 -1.85000002 
1.80000007 2.85000014 -1.89999998 
1.80000007 2.85000014 -1.85000002 
1.85000002 2.79999995 -1.89999998 
1.85000002 2.79999995 -1.85000002 
1.85000002 2.85000014 -1.89999998 
1.85000002 2.85000014 -1.85000002 
1.80000007 2.79999995 -1.80000007 
1.80000007 2.85000014 -1.80000007 
1.85000002 2.79999995 -1.80000007 
1.85000002 2.79999995 -1.75 
1.85000002 2.85000014 -1.80000007 
1.85000002 2.85000014 -1.75 
1.85000002 2.79999995 -1.70000005 
1.85000002 2.79999995 -1.64999998 
1.85000002 2.85000014 -1.70000005 
1.85000002 2.85000014 -1.64999998 
1.80000007 2.9000001 -1.89999998 
1.80000007 2.9000001 -1.85000002 
1.80000007 2.95000005 -1.89999998 
1.80000007 2.95000005 -1.85000002 
1.85000002 2.9000001 -1.89999998 
1.85000002 2.9000001 -1.85000002 
1.85000002 2.95000005 -1.89999998 
1.85000002 2.95000005 -1.85000002 
1.80000007 2.9000001 -1.80000007 
1.80000007 2.95000005 -1.80000007 
1.85000002 2.9000001 -1.80000007 
1.85000002 2.9000001 -1.75 
1.85000002 2.95000005 -1.80000007 
1.85000002 2.95000005 -1.75 
1.85000002 2.9000001 -1.70000005 
1.85000002 2.9000001 -1.64999998 
1.85000002 2.95000005 -1.70000005 
1.85000002 2.95000005 -1.64999998 
1.80000007 3 -1.89999998 
1.80000007 3 -1.85000002 
1.80000007 3.04999995 -1.89999998 
1.80000007 3.04999995 -1.85000002 
1.85000002 3 -1.89999998 
1.85000002 3 -1.85000002 
1.85000002 3.04999995 -1.89999998 
1.85000002 3.04999995 -1.85000002 
1.80000007 3 -1.80000007 
1.80000007 3.04999995 -1.80000007 
1.85000002 3 -1.80000007 
1.85000002 3 -1.75 
1.85000002 3.04999995 -1.80000007 
1.85000002 3.04999995 -1.75 
1.85000002 3 -1.70000005 
1.85000002 3 -1.64999998 
1.85000002 3.04999995 -1.70000005 
1.85000002 3.04999995 -1.64999998 
1.89999998 2.4000001 -1.89999998 
1.89999998 2.4000001 -1.85000002 
1.89999998 2.45000005 -1.89999998 
1.89999998 2.45000005 -1.85000002 
1.89999998 2.4000001 -1.80000007 
1.89999998 2.4000001 -1.75 
1.89999998 2.45000005 -1.80000007 
1.89999998 2.45000005 -1.75 
1.89999998 2.4000001 -1.70000005 
1.89999998 2.4000001 -1.64999998 
1.89999998 2.45000005 -1.70000005 
1.89999998 2.45000005 -1.64999998 
1.89999998 2.5 -1.89999998 
1.89999998 2.5 -1.85000002 
1.89999998 2.54999995 -1.89999998 
1.89999998 2.54999995 -1.85000002 
1.89999998 2.5 -1.80000007 
1.89999998 2.5 -1.75 
1.89999998 2.54999995 -1.80000007 
1.89999998 2.54999995 -1.75 
1.89999998 2.5 -1.70000005 
1.89999998 2.5 -1.64999998 
1.89999998 2.54999995 -1.70000005 
1.89999998 2.54999995 -1.64999998 
1.89999998 2.60000014 -1.89999998 
1.89999998 2.60000014 -1.85000002 
1.89999998 2.6500001 -1.89999998 
1.89999998 2.6500001 -1.85000002 
1.89999998 2.60000014 -1.80000007 
1.89999998 2.60000014 -1.75 
1.89999998 2.6500001 -1.80000007 
1.89999998 2.6500001 -1.75 
1.89999998 2.60000014 -1.70000005 
1.89999998 2.60000014 -1.64999998 
1.89999998 2.6500001 -1.70000005 
1.89999998 2.6500001 -1.64999998 
1.89999998 2.70000005 -1.89999998 
1.89999998 2.70000005 -1.85000002 
1.89999998 2.75 -1.89999998 
1.89999998 2.75 -1.85000002 
1.89999998 2.70000005 -1.80000007 
1.89999998 2.70000005 -1.75 
1.89999998 2.75 -1.80000007 
1.89999998 2.75 -1.75 
1.89999998 2.70000005 -1.70000005 
1.89999998 2.70000005 -1.64999998 
1.89999998 2.75 -1.70000005 
1.89999998 2.75 -1.64999998 
1.89999998 2.79999995 -1.89999998 
1.89999998 2.79999995 -1.85000002 
1.89999998 2.85000014 -1.89999998 
1.89999998 2.85000014 -1.85000002 
1.89999998 2.79999995 -1.80000007 
1.89999998 2.79999995 -1.75 
1.89999998 2.85000014 -1.80000007 
1.89999998 2.85000014 -1.75 
1.89999998 2.79999995 -1.70000005 
1.89999998 2.79999995 -1.64999998 
1.89999998 2.85000014 -1.70000005 
1.89999998 2.85000014 -1.64999998 
1.89999998 2.9000001 -1.89999998 
1.89999998 2.9000001 -1.85000002 
1.89999998 2.95000005 -1.89999998 
1.89999998 2.95000005 -1.85000002 
1.89999998 2.9000001 -1.80000007 
1.89999998 2.9000001 -1.75 
1.89999998 2.95000005 -1.80000007 
1.89999998 2.95000005 -1.75 
1.89999998 2.9000001 -1.70000005 
1.89999998 2.9000001 -1.64999998 
1.89999998 2.95000005 -1.70000005 
1.89999998 2.95000005 -1.64999998 
1.89999998 3 -1.89999998 
1.89999998 3 -1.85000002 
1.89999998 3.04999995 -1.89999998 
1.89999998 3.04999995 -1.85000002 
1.89999998 3 -1.80000007 
1.89999998 3 -1.75 
1.89999998 3.04999995 -1.80000007 
1.89999998 3.04999995 -1.75 
1.89999998 3 -1.70000005 
1.89999998 3 -1.64999998 
1.89999998 3.04999995 -1.70000005 
1.89999998 3.04999995 -1.64999998 
1.85000002 2.4000001 -1.60000002 
1.85000002 2.4000001 -1.55000007 
1.85000002 2.45000005 -1.60000002 
1.85000002 2.45000005 -1.55000007 
1.85000002 2.4000001 -1.5 
1.85000002 2.4000001 -1.45000005 
1.85000002 2.45000005 -1.5 
1.85000002 2.45000005 -1.45000005 
1.85000002 2.4000001 -1.39999998 
1.85000002 2.4000001 -1.35000002 
1.85000002 2.45000005 -1.39999998 
1.85000002 2.45000005 -1.35000002 
1.85000002 2.4000001 -1.30000007 
1.85000002 2.4000001 -1.25 
1.85000002 2.45000005 -1.30000007 
1.85000002 2.45000005 -1.25 
1.85000002 2.4000001 -1.20000005 
1.85000002 2.4000001 -1.14999998 
1.85000002 2.45000005 -1.20000005 
1.85000002 2.45000005 -1.14999998 
1.85000002 2.4000001 -1.10000002 
1.85000002 2.4000001 -1.05000007 
1.85000002 2.45000005 -1.10000002 
1.85000002 2.45000005 -1.05000007 
1.85000002 2.4000001 -1 
1.85000002 2.4000001 -0.949999988 
1.85000002 2.45000005 -1 
1.85000002 2.45000005 -0.949999988 
1.85000002 2.4000001 -0.900000036 
1.85000002 2.4000001 -0.850000024 
1.85000002 2.45000005 -0.900000036 
1.85000002 2.45000005 -0.850000024 
1.85000002 2.5 -1.60000002 
1.85000002 2.5 -1.55000007 
1.85000002 2.54999995 -1.60000002 
1.85000002 2.54999995 -1.55000007 
1.85000002 2.5 -1.5 
1.85000002 2.5 -1.45000005 
1.85000002 2.54999995 -1.5 
1.85000002 2.54999995 -1.45000005 
1.85000002 2.5 -1.39999998 
1.85000002 2.5 -1.35000002 
1.85000002 2.54999995 -1.39999998 
1.85000002 2.54999995 -1.35000002 
1.85000002 2.5 -1.30000007 
1.85000002 2.5 -1.25 
1.85000002 2.54999995 -1.30000007 
1.85000002 2.54999995 -1.25 
1.85000002 2.5 -1.20000005 
1.85000002 2.5 -1.14999998 
1.85000002 2.54999995 -1.20000005 
1.85000002 2.54999995 -1.14999998 
1.85000002 2.5 -1.10000002 
1.85000002 2.5 -1.05000007 
1.85000002 2.54999995 -1.10000002 
1.85000002 2.54999995 -1.05000007 
1.85000002 2.5 -1 
1.85000002 2.5 -0.949999988 
1.85000002 2.54999995 -1 
1.85000002 2.54999995 -0.949999988 
1.85000002 2.5 -0.900000036 
1.85000002 2.5 -0.850000024 
1.85000002 2.54999995 -0.900000036 
1.85000002 2.54999995 -0.850000024 
1.85000002 2.60000014 -1.60000002 
1.85000002 2.60000014 -1.55000007 
1.85000002 2.6500001 -1.60000002 
1.85000002 2.6500001 -1.55000007 
1.85000002 2.60000014 -1.5 
1.85000002 2.60000014 -1.45000005 
1.85000002 2.6500001 -1.5 
1.85000002 2.6500001 -1.45000005 
1.85000002 2.60000014 -1.39999998 
1.85000002 2.60000014 -1.35000002 
1.85000002 2.6500001 -1.39999998 
1.85000002 2.6500001 -1.35000002 
1.85000002 2.60000014 -1.30000007 
1.85000002 2.60000014 -1.25 
1.85000002 2.6500001 -1.30000007 
1.85000002 2.6500001 -1.25 
1.85000002 2.60000014 -1.20000005 
1.85000002 2.60000014 -1.14999998 
1.85000002 2.6500001 -1.20000005 
1.85000002 2.6500001 -1.14999998 
1.85000002 2.60000014 -1.10000002 
1.85000002 2.60000014 -1.05000007 
1.85000002 2.6500001 -1.10000002 
1.85000002 2.6500001 -1.05000007 
1.85000002 2.60000014 -1 
1.85000002 2.60000014 -0.949999988 
1.85000002 2.6500001 -1 
1.85000002 2.6500001 -0.949999988 
1.85000002 2.60000014 -0.900000036 
1.85000002 2.60000014 -0.850000024 
1.85000002 2.6500001 -0.900000036 
1.85000002 2.6500001 -0.850000024 
1.85000002 2.70000005 -1.60000002 
1.85000002 2.70000005 -1.55000007 
1.85000002 2.75 -1.60000002 
1.85000002 2.75 -1.55000007 
1.85000002 2.70000005 -1.5 
1.85000002 2.70000005 -1.45000005 
1.85000002 2.75 -1.5 
1.85000002 2.75 -1.45000005 
1.85000002 2.70000005 -1.39999998 
1.85000002 2.70000005 -1.35000002 
1.85000002 2.75 -1.39999998 
1.85000002 2.75 -1.35000002 
1.85000002 2.70000005 -1.30000007 
1.85000002 2.70000005 -1.25 
1.85000002 2.75 -1.30000007 
1.85000002 2.75 -1.25 
1.85000002 2.70000005 -1.20000005 
1.85000002 2.70000005 -1.14999998 
1.85000002 2.75 -1.20000005 
1.85000002 2.75 -1.14999998 
1.85000002 2.70000005 -1.10000002 
1.85000002 2.70000005 -1.05000007 
1.85000002 2.75 -1.10000002 
1.85000002 2.75 -1.05000007 
1.85000002 2.70000005 -1 
1.85000002 2.70000005 -0.949999988 
1.85000002 2.75 -1 
1.85000002 2.75 -0.949999988 
1.85000002 2.70000005 -0.900000036 
1.85000002 2.70000005 -0.850000024 
1.85000002 2.75 -0.900000036 
1.85000002 2.75 -0.850000024 
1.85000002 2.79999995 -1.60000002 
1.85000002 2.79999995 -1.55000007 
1.85000002 2.85000014 -1.60000002 
1.85000002 2.85000014 -1.55000007 
1.85000002 2.79999995 -1.5 
1.85000002 2.79999995 -1.45000005 
1.85000002 2.85000014 -1.5 
1.85000002 2.85000014 -1.45000005 
1.85000002 2.79999995 -1.39999998 
1.85000002 2.79999995 -1.35000002 
1.85000002 2.85000014 -1.39999998 
1.85000002 2.85000014 -1.35000002 
1.85000002 2.79999995 -1.30000007 
1.85000002 2.79999995 -1.25 
1.85000002 2.85000014 -1.30000007 
1.85000002 2.85000014 -1.25 
1.85000002 2.79999995 -1.20000005 
1.85000002 2.79999995 -1.14999998 
1.85000002 2.85000014 -1.20000005 
1.85000002 2.85000014 -1.14999998 
1.85000002 2.79999995 -1.10000002 
1.85000002 2.79999995 -1.05000007 
1.85000002 2.85000014 -1.10000002 
1.85000002 2.85000014 -1.05000007 
1.85000002 2.79999995 -1 
1.85000002 2.79999995 -0.949999988 
1.85000002 2.85000014 -1 
1.85000002 2.85000014 -0.949999988 
1.85000002 2.79999995 -0.900000036 
1.85000002 2.79999995 -0.850000024 
1.85000002 2.85000014 -0.900000036 
1.85000002 2.85000014 -0.850000024 
1.85000002 2.9000001 -1.60000002 
1.85000002 2.9000001 -1.55000007 
1.85000002 2.95000005 -1.60000002 
1.85000002 2.95000005 -1.55000007 
1.85000002 2.9000001 -1.5 
1.85000002 2.9000001 -1.45000005 
1.85000002 2.95000005 -1.5 
1.85000002 2.95000005 -1.45000005 
1.85000002 2.9000001 -1.39999998 
1.85000002 2.9000001 -1.35000002 
1.85000002 2.95000005 -1.39999998 
1.85000002 2.95000005 -1.35000002 
1.85000002 2.9000001 -1.30000007 
1.85000002 2.9000001 -1.25 
1.85000002 2.95000005 -1.30000007 
1.85000002 2.95000005 -1.25 
1.85000002 2.9000001 -1.20000005 
1.85000002 2.9000001 -1.14999998 
1.85000002 2.95000005 -1.20000005 
1.85000002 2.95000005 -1.14999998 
1.85000002 2.9000001 -1.10000002 
1.85000002 2.9000001 -1.05000007 
1.85000002 2.95000005 -1.10000002 
1.85000002 2.95000005 -1.05000007 
1.85000002 2.9000001 -1 
1.85000002 2.9000001 -0.949999988 
1.85000002 2.95000005 -1 
1.85000002 2.95000005 -0.949999988 
1.85000002 2.9000001 -0.900000036 
1.85000002 2.9000001 -0.850000024 
1.85000002 2.95000005 -0.900000036 
1.85000002 2.95000005 -0.850000024 
1.85000002 3 -1.60000002 
1.85000002 3 -1.55000007 
1.85000002 3.04999995 -1.60000002 
1.85000002 3.04999995 -1.55000007 
1.85000002 3 -1.5 
1.85000002 3 -1.45000005 
1.85000002 3.04999995 -1.5 
1.85000002 3.04999995 -1.45000005 
1.85000002 3 -1.39999998 
1.85000002 3 -1.35000002 
1.85000002 3.04999995 -1.39999998 
1.85000002 3.04999995 -1.35000002 
1.85000002 3 -1.30000007 
1.85000002 3 -1.25 
1.85000002 3.04999995 -1.30000007 
1.85000002 3.04999995 -1.25 
1.85000002 3 -1.20000005 
1.85000002 3 -1.14999998 
1.85000002 3.04999995 -1.20000005 
1.85000002 3.04999995 -1.14999998 
1.85000002 3 -1.10000002 
1.85000002 3 -1.05000007 
1.85000002 3.04999995 -1.10000002 
1.85000002 3.04999995 -1.05000007 
1.85000002 3 -1 
1.85000002 3 -0.949999988 
1.85000002 3.04999995 -1 
1.85000002 3.04999995 -0.949999988 
1.85000002 3 -0.900000036 
1.85000002 3 -0.850000024 
1.85000002 3.04999995 -0.900000036 
1.85000002 3.04999995 -0.850000024 
1.89999998 2.4000001 -1.60000002 
1.89999998 2.4000001 -1.55000007 
1.89999998 2.45000005 -1.60000002 
1.89999998 2.45000005 -1.55000007 
1.89999998 2.4000001 -1.5 
1.89999998 2.4000001 -1.45000005 
1.89999998 2.45000005 -1.5 
1.89999998 2.45000005 -1.45000005 
1.89999998 2.4000001 -1.39999998 
1.89999998 2.4000001 -1.35000002 
1.89999998 2.45000005 -1.39999998 
1.89999998 2.45000005 -1.35000002 
1.89999998 2.4000001 -1.30000007 
1.89999998 2.4000001 -1.25 
1.89999998 2.45000005 -1.30000007 
1.89999998 2.45000005 -1.25 
1.89999998 2.4000001 -1.20000005 
1.89999998 2.4000001 -1.14999998 
1.89999998 2.45000005 -1.20000005 
1.89999998 2.45000005 -1.14999998 
1.89999998 2.4000001 -1.10000002 
1.89999998 2.4000001 -1.05000007 
1.89999998 2.45000005 -1.10000002 
1.89999998 2.45000005 -1.05000007 
1.89999998 2.4000001 -1 
1.89999998 2.4000001 -0.949999988 
1.89999998 2.45000005 -1 
1.89999998 2.45000005 -0.949999988 
1.89999998 2.4000001 -0.900000036 
1.89999998 2.4000001 -0.850000024 
1.89999998 2.45000005 -0.900000036 
1.89999998 2.45000005 -0.850000024 
1.89999998 2.5 -1.60000002 
1.89999998 2.5 -1.55000007 
1.89999998 2.54999995 -1.60000002 
1.89999998 2.54999995 -1.55000007 
1.89999998 2.5 -1.5 
1.89999998 2.5 -1.45000005 
1.89999998 2.54999995 -1.5 
1.89999998 2.54999995 -1.45000005 
1.89999998 2.5 -1.39999998 
1.89999998 2.5 -1.35000002 
1.89999998 2.54999995 -1.39999998 
1.89999998 2.54999995 -1.35000002 
1.89999998 2.5 -1.30000007 
1.89999998 2.5 -1.25 
1.89999998 2.54999995 -1.30000007 
1.89999998 2.54999995 -1.25 
1.89999998 2.5 -1.20000005 
1.89999998 2.5 -1.14999998 
1.89999998 2.54999995 -1.20000005 
1.89999998 2.54999995 -1.14999998 
1.89999998 2.5 -1.10000002 
1.89999998 2.5 -1.05000007 
1.89999998 2.54999995 -1.10000002 
1.89999998 2.54999995 -1.05000007 
1.89999998 2.5 -1 
1.89999998 2.5 -0.949999988 
1.89999998 2.54999995 -1 
1.89999998 2.54999995 -0.949999988 
1.89999998 2.5 -0.900000036 
1.89999998 2.5 -0.850000024 
1.89999998 2.54999995 -0.900000036 
1.89999998 2.54999995 -0.850000024 
1.89999998 2.60000014 -1.60000002 
1.89999998 2.60000014 -1.55000007 
1.89999998 2.6500001 -1.60000002 
1.89999998 2.6500001 -1.55000007 
1.89999998 2.60000014 -1.5 
1.89999998 2.60000014 -1.45000005 
1.89999998 2.6500001 -1.5 
1.89999998 2.6500001 -1.45000005 
1.89999998 2.60000014 -1.39999998 
1.89999998 2.60000014 -1.35000002 
1.89999998 2.6500001 -1.39999998 
1.89999998 2.6500001 -1.35000002 
1.89999998 2.60000014 -1.30000007 
1.89999998 2.60000014 -1.25 
1.89999998 2.6500001 -1.30000007 
1.89999998 2.6500001 -1.25 
1.89999998 2.60000014 -1.20000005 
1.89999998 2.60000014 -1.14999998 
1.89999998 2.6500001 -1.20000005 
1.89999998 2.6500001 -1.14999998 
1.89999998 2.60000014 -1.10000002 
1.89999998 2.60000014 -1.05000007 
1.89999998 2.6500001 -1.10000002 
1.89999998 2.6500001 -1.05000007 
1.89999998 2.60000014 -1 
1.89999998 2.60000014 -0.949999988 
1.89999998 2.6500001 -1 
1.89999998 2.6500001 -0.949999988 
1.89999998 2.60000014 -0.900000036 
1.89999998 2.60000014 -0.850000024 
1.89999998 2.6500001 -0.900000036 
1.89999998 2.6500001 -0.850000024 
1.89999998 2.70000005 -1.60000002 
1.89999998 2.70000005 -1.55000007 
1.89999998 2.75 -1.60000002 
1.89999998 2.75 -1.55000007 
1.89999998 2.70000005 -1.5 
1.89999998 2.70000005 -1.45000005 
1.89999998 2.75 -1.5 
1.89999998 2.75 -1.45000005 
1.89999998 2.70000005 -1.39999998 
1.89999998 2.70000005 -1.35000002 
1.89999998 2.75 -1.39999998 
1.89999998 2.75 -1.35000002 
1.89999998 2.70000005 -1.30000007 
1.89999998 2.70000005 -1.25 
1.89999998 2.75 -1.30000007 
1.89999998 2.75 -1.25 
1.89999998 2.70000005 -1.20000005 
1.89999998 2.70000005 -1.14999998 
1.89999998 2.75 -1.20000005 
1.89999998 2.75 -1.14999998 
1.89999998 2.70000005 -1.10000002 
1.89999998 2.70000005 -1.05000007 
1.89999998 2.75 -1.10000002 
1.89999998 2.75 -1.05000007 
1.89999998 2.70000005 -1 
1.89999998 2.70000005 -0.949999988 
1.89999998 2.75 -1 
1.89999998 2.75 -0.949999988 
1.89999998 2.70000005 -0.900000036 
1.89999998 2.70000005 -0.850000024 
1.89999998 2.75 -0.900000036 
1.89999998 2.75 -0.850000024 
1.89999998 2.79999995 -1.60000002 
1.89999998 2.79999995 -1.55000007 
1.89999998 2.85000014 -1.60000002 
1.89999998 2.85000014 -1.55000007 
1.89999998 2.79999995 -1.5 
1.89999998 2.79999995 -1.45000005 
1.89999998 2.85000014 -1.5 
1.89999998 2.85000014 -1.45000005 
1.89999998 2.79999995 -1.39999998 
1.89999998 2.79999995 -1.35000002 
1.89999998 2.85000014 -1.39999998 
1.89999998 2.85000014 -1.35000002 
1.89999998 2.79999995 -1.30000007 
1.89999998 2.79999995 -1.25 
1.89999998 2.85000014 -1.30000007 
1.89999998 2.85000014 -1.25 
1.89999998 2.79999995 -1.20000005 
1.89999998 2.79999995 -1.14999998 
1.89999998 2.85000014 -1.20000005 
1.89999998 2.85000014 -1.14999998 
1.89999998 2.79999995 -1.10000002 
1.89999998 2.79999995 -1.05000007 
1.89999998 2.85000014 -1.10000002 
1.89999998 2.85000014 -1.05000007 
1.89999998 2.79999995 -1 
1.89999998 2.79999995 -0.949999988 
1.89999998 2.85000014 -1 
1.89999998 2.85000014 -0.949999988 
1.89999998 2.79999995 -0.900000036 
1.89999998 2.79999995 -0.850000024 
1.89999998 2.85000014 -0.900000036 
1.89999998 2.85000014 -0.850000024 
1.89999998 2.9000001 -1.60000002 
1.89999998 2.9000001 -1.55000007 
1.89999998 2.95000005 -1.60000002 
1.89999998 2.95000005 -1.55000007 
1.89999998 2.9000001 -1.5 
1.89999998 2.9000001 -1.45000005 
1.89999998 2.95000005 -1.5 
1.89999998 2.95000005 -1.45000005 
1.89999998 2.9000001 -1.39999998 
1.89999998 2.9000001 -1.35000002 
1.89999998 2.95000005 -1.39999998 
1.89999998 2.95000005 -1.35000002 
1.89999998 2.9000001 -1.30000007 
1.89999998 2.9000001 -1.25 
1.89999998 2.95000005 -1.30000007 
1.89999998 2.95000005 -1.25 
1.89999998 2.9000001 -1.20000005 
1.89999998 2.9000001 -1.14999998 
1.89999998 2.95000005 -1.20000005 
1.89999998 2.95000005 -1.14999998 
1.89999998 2.9000001 -1.10000002 
1.89999998 2.9000001 -1.05000007 
1.89999998 2.95000005 -1.10000002 
1.89999998 2.95000005 -1.05000007 
1.89999998 2.9000001 -1 
1.89999998 2.9000001 -0.949999988 
1.89999998 2.95000005 -1 
1.89999998 2.95000005 -0.949999988 
1.89999998 2.9000001 -0.900000036 
1.89999998 2.9000001 -0.850000024 
1.89999998 2.95000005 -0.900000036 
1.89999998 2.95000005 -0.850000024 
1.89999998 3 -1.60000002 
1.89999998 3 -1.55000007 
1.89999998 3.04999995 -1.60000002 
1.89999998 3.04999995 -1.55000007 
1.89999998 3 -1.5 
1.89999998 3 -1.45000005 
1.89999998 3.04999995 -1.5 
1.89999998 3.04999995 -1.45000005 
1.89999998 3 -1.39999998 
1.89999998 3 -1.35000002 
1.89999998 3.04999995 -1.39999998 
1.89999998 3.04999995 -1.35000002 
1.89999998 3 -1.30000007 
1.89999998 3 -1.25 
1.89999998 3.04999995 -1.30000007 
1.89999998 3.04999995 -1.25 
1.89999998 3 -1.20000005 
1.89999998 3 -1.14999998 
1.89999998 3.04999995 -1.20000005 
1.89999998 3.04999995 -1.14999998 
1.89999998 3 -1.10000002 
1.89999998 3 -1.05000007 
1.89999998 3.04999995 -1.10000002 
1.89999998 3.04999995 -1.05000007 
1.89999998 3 -1 
1.89999998 3 -0.949999988 
1.89999998 3.04999995 -1 
1.89999998 3.04999995 -0.949999988 
1.89999998 3 -0.900000036 
1.89999998 3 -0.850000024 
1.89999998 3.04999995 -0.900000036 
1.89999998 3.04999995 -0.850000024 
1.85000002 2.4000001 -0.800000012 
1.85000002 2.4000001 -0.75 
1.85000002 2.45000005 -0.800000012 
1.85000002 2.45000005 -0.75 
1.85000002 2.4000001 -0.699999988 
1.85000002 2.4000001 -0.650000036 
1.85000002 2.45000005 -0.699999988 
1.85000002 2.45000005 -0.650000036 
1.85000002 2.4000001 -0.600000024 
1.85000002 2.4000001 -0.550000012 
1.85000002 2.45000005 -0.600000024 
1.85000002 2.45000005 -0.550000012 
1.85000002 2.4000001 -0.5 
1.85000002 2.4000001 -0.450000018 
1.85000002 2.45000005 -0.5 
1.85000002 2.45000005 -0.450000018 
1.85000002 2.4000001 -0.400000006 
1.85000002 2.4000001 -0.349999994 
1.85000002 2.45000005 -0.400000006 
1.85000002 2.45000005 -0.349999994 
1.85000002 2.4000001 -0.300000012 
1.85000002 2.4000001 -0.25 
1.85000002 2.45000005 -0.300000012 
1.85000002 2.45000005 -0.25 
1.85000002 2.4000001 -0.200000003 
1.85000002 2.4000001 -0.150000006 
1.85000002 2.45000005 -0.200000003 
1.85000002 2.45000005 -0.150000006 
1.85000002 2.4000001 -0.100000001 
1.85000002 2.4000001 -0.0500000007 
1.85000002 2.45000005 -0.100000001 
1.85000002 2.45000005 -0.0500000007 
1.85000002 2.5 -0.800000012 
1.85000002 2.5 -0.75 
1.85000002 2.54999995 -0.800000012 
1.85000002 2.54999995 -0.75 
1.85000002 2.5 -0.699999988 
1.85000002 2.5 -0.650000036 
1.85000002 2.54999995 -0.699999988 
1.85000002 2.54999995 -0.650000036 
1.85000002 2.5 -0.600000024 
1.85000002 2.5 -0.550000012 
1.85000002 2.54999995 -0.600000024 
1.85000002 2.54999995 -0.550000012 
1.85000002 2.5 -0.5 
1.85000002 2.5 -0.450000018 
1.85000002 2.54999995 -0.5 
1.85000002 2.54999995 -0.450000018 
1.85000002 2.5 -0.400000006 
1.85000002 2.5 -0.349999994 
1.85000002 2.54999995 -0.400000006 
1.85000002 2.54999995 -0.349999994 
1.85000002 2.5 -0.300000012 
1.85000002 2.5 -0.25 
1.85000002 2.54999995 -0.300000012 
1.85000002 2.54999995 -0.25 
1.85000002 2.5 -0.200000003 
1.85000002 2.5 -0.150000006 
1.85000002 2.54999995 -0.200000003 
1.85000002 2.54999995 -0.150000006 
1.85000002 2.5 -0.100000001 
1.85000002 2.5 -0.0500000007 
1.85000002 2.54999995 -0.100000001 
1.85000002 2.54999995 -0.0500000007 
1.85000002 2.60000014 -0.800000012 
1.85000002 2.60000014 -0.75 
1.85000002 2.6500001 -0.800000012 
1.85000002 2.6500001 -0.75 
1.85000002 2.60000014 -0.699999988 
1.85000002 2.60000014 -0.650000036 
1.85000002 2.6500001 -0.699999988 
1.85000002 2.6500001 -0.650000036 
1.85000002 2.60000014 -0.600000024 
1.85000002 2.60000014 -0.550000012 
1.85000002 2.6500001 -0.600000024 
1.85000002 2.6500001 -0.550000012 
1.85000002 2.60000014 -0.5 
1.85000002 2.60000014 -0.450000018 
1.85000002 2.6500001 -0.5 
1.85000002 2.6500001 -0.450000018 
1.85000002 2.60000014 -0.400000006 
1.85000002 2.60000014 -0.349999994 
1.85000002 2.6500001 -0.400000006 
1.85000002 2.6500001 -0.349999994 
1.85000002 2.60000014 -0.300000012 
1.85000002 2.60000014 -0.25 
1.85000002 2.6500001 -0.300000012 
1.85000002 2.6500001 -0.25 
1.85000002 2.60000014 -0.200000003 
1.85000002 2.60000014 -0.150000006 
1.85000002 2.6500001 -0.200000003 
1.85000002 2.6500001 -0.150000006 
1.85000002 2.60000014 -0.100000001 
1.85000002 2.60000014 -0.0500000007 
1.85000002 2.6500001 -0.100000001 
1.85000002 2.6500001 -0.0500000007 
1.85000002 2.70000005 -0.800000012 
1.85000002 2.70000005 -0.75 
1.85000002 2.75 -0.800000012 
1.85000002 2.75 -0.75 
1.85000002 2.70000005 -0.699999988 
1.85000002 2.70000005 -0.650000036 
1.85000002 2.75 -0.699999988 
1.85000002 2.75 -0.650000036 
1.85000002 2.70000005 -0.600000024 
1.85000002 2.70000005 -0.550000012 
1.85000002 2.75 -0.600000024 
1.85000002 2.75 -0.550000012 
1.85000002 2.70000005 -0.5 
1.85000002 2.70000005 -0.450000018 
1.85000002 2.75 -0.5 
1.85000002 2.75 -0.450000018 
1.85000002 2.70000005 -0.400000006 
1.85000002 2.70000005 -0.349999994 
1.85000002 2.75 -0.400000006 
1.85000002 2.75 -0.349999994 
1.85000002 2.70000005 -0.300000012 
1.85000002 2.70000005 -0.25 
1.85000002 2.75 -0.300000012 
1.85000002 2.75 -0.25 
1.85000002 2.70000005 -0.200000003 
1.85000002 2.70000005 -0.150000006 
1.85000002 2.75 -0.200000003 
1.85000002 2.75 -0.150000006 
1.85000002 2.70000005 -0.100000001 
1.85000002 2.70000005 -0.0500000007 
1.85000002 2.75 -0.100000001 
1.85000002 2.75 -0.0500000007 
1.85000002 2.79999995 -0.800000012 
1.85000002 2.79999995 -0.75 
1.85000002 2.85000014 -0.800000012 
1.85000002 2.85000014 -0.75 
1.85000002 2.79999995 -0.699999988 
1.85000002 2.79999995 -0.650000036 
1.85000002 2.85000014 -0.699999988 
1.85000002 2.85000014 -0.650000036 
1.85000002 2.79999995 -0.600000024 
1.85000002 2.79999995 -0.550000012 
1.85000002 2.85000014 -0.600000024 
1.85000002 2.85000014 -0.550000012 
1.85000002 2.79999995 -0.5 
1.85000002 2.79999995 -0.450000018 
1.85000002 2.85000014 -0.5 
1.85000002 2.85000014 -0.450000018 
1.85000002 2.79999995 -0.400000006 
1.85000002 2.79999995 -0.349999994 
1.85000002 2.85000014 -0.400000006 
1.85000002 2.85000014 -0.349999994 
1.85000002 2.79999995 -0.300000012 
1.85000002 2.79999995 -0.25 
1.85000002 2.85000014 -0.300000012 
1.85000002 2.85000014 -0.25 
1.85000002 2.79999995 -0.200000003 
1.85000002 2.79999995 -0.150000006 
1.85000002 2.85000014 -0.200000003 
1.85000002 2.85000014 -0.150000006 
1.85000002 2.79999995 -0.100000001 
1.85000002 2.79999995 -0.0500000007 
1.85000002 2.85000014 -0.100000001 
1.85000002 2.85000014 -0.0500000007 
1.85000002 2.9000001 -0.800000012 
1.85000002 2.9000001 -0.75 
1.85000002 2.95000005 -0.800000012 
1.85000002 2.95000005 -0.75 
1.85000002 2.9000001 -0.699999988 
1.85000002 2.9000001 -0.650000036 
1.85000002 2.95000005 -0.699999988 
1.85000002 2.95000005 -0.650000036 
