ply
format ascii 1.0
comment created by gply, a Houdini tool.
comment converted from .[b]geo
comment for more information about Houdini, try:
comment www.sidefx.com
element vertex 1409
property float x
property float y
property float z
element face 0
property list uchar int vertex_indices
end_header
0.479999989 0.159999996 -2.15999985 
0.479999989 0.239999995 -2.24000001 
0.479999989 0.239999995 -2.15999985 
0.560000002 0.159999996 -2.24000001 
0.560000002 0.159999996 -2.15999985 
0.560000002 0.239999995 -2.24000001 
0.560000002 0.239999995 -2.15999985 
0.479999989 0.159999996 -2.07999992 
0.479999989 0.159999996 -2 
0.479999989 0.239999995 -2.07999992 
0.479999989 0.239999995 -2 
0.560000002 0.159999996 -2.07999992 
0.560000002 0.159999996 -2 
0.560000002 0.239999995 -2.07999992 
0.560000002 0.239999995 -2 
0.479999989 0.159999996 -1.91999996 
0.479999989 0.159999996 -1.83999991 
0.479999989 0.239999995 -1.91999996 
0.479999989 0.239999995 -1.83999991 
0.560000002 0.159999996 -1.91999996 
0.560000002 0.159999996 -1.83999991 
0.560000002 0.239999995 -1.91999996 
0.560000002 0.239999995 -1.83999991 
0.479999989 0.159999996 -1.75999999 
0.479999989 0.159999996 -1.67999995 
0.479999989 0.239999995 -1.75999999 
0.479999989 0.239999995 -1.67999995 
0.560000002 0.159999996 -1.75999999 
0.560000002 0.159999996 -1.67999995 
0.560000002 0.239999995 -1.75999999 
0.560000002 0.239999995 -1.67999995 
0.479999989 0.159999996 -1.5999999 
0.479999989 0.159999996 -1.51999998 
0.479999989 0.239999995 -1.5999999 
0.479999989 0.239999995 -1.51999998 
0.560000002 0.159999996 -1.5999999 
0.560000002 0.159999996 -1.51999998 
0.560000002 0.239999995 -1.5999999 
0.560000002 0.239999995 -1.51999998 
0.479999989 0.159999996 -1.43999994 
0.479999989 0.159999996 -1.36000001 
0.479999989 0.239999995 -1.43999994 
0.479999989 0.239999995 -1.36000001 
0.560000002 0.159999996 -1.43999994 
0.560000002 0.159999996 -1.36000001 
0.560000002 0.239999995 -1.43999994 
0.560000002 0.239999995 -1.36000001 
0.639999986 0 -2.39999986 
0.639999986 0 -2.31999993 
0.639999986 0.0799999982 -2.39999986 
0.639999986 0.0799999982 -2.31999993 
0.719999969 0 -2.31999993 
0.719999969 0.0799999982 -2.31999993 
0.639999986 0 -2.24000001 
0.639999986 0 -2.15999985 
0.639999986 0.0799999982 -2.24000001 
0.639999986 0.0799999982 -2.15999985 
0.719999969 0 -2.24000001 
0.719999969 0 -2.15999985 
0.719999969 0.0799999982 -2.24000001 
0.719999969 0.0799999982 -2.15999985 
0.639999986 0 -2.07999992 
0.639999986 0 -2 
0.639999986 0.0799999982 -2.07999992 
0.639999986 0.0799999982 -2 
0.719999969 0 -2.07999992 
0.719999969 0 -2 
0.719999969 0.0799999982 -2.07999992 
0.719999969 0.0799999982 -2 
0.639999986 0 -1.91999996 
0.639999986 0 -1.83999991 
0.639999986 0.0799999982 -1.91999996 
0.639999986 0.0799999982 -1.83999991 
0.719999969 0 -1.91999996 
0.719999969 0 -1.83999991 
0.719999969 0.0799999982 -1.91999996 
0.719999969 0.0799999982 -1.83999991 
0.639999986 0 -1.75999999 
0.639999986 0 -1.67999995 
0.639999986 0.0799999982 -1.75999999 
0.639999986 0.0799999982 -1.67999995 
0.719999969 0 -1.75999999 
0.719999969 0 -1.67999995 
0.719999969 0.0799999982 -1.75999999 
0.719999969 0.0799999982 -1.67999995 
0.639999986 0 -1.5999999 
0.639999986 0 -1.51999998 
0.639999986 0.0799999982 -1.5999999 
0.639999986 0.0799999982 -1.51999998 
0.719999969 0 -1.5999999 
0.719999969 0 -1.51999998 
0.719999969 0.0799999982 -1.5999999 
0.719999969 0.0799999982 -1.51999998 
0.639999986 0 -1.43999994 
0.639999986 0 -1.36000001 
0.639999986 0.0799999982 -1.43999994 
0.639999986 0.0799999982 -1.36000001 
0.719999969 0 -1.43999994 
0.719999969 0 -1.36000001 
0.719999969 0.0799999982 -1.43999994 
0.719999969 0.0799999982 -1.36000001 
0.639999986 0.159999996 -2.39999986 
0.639999986 0.159999996 -2.31999993 
0.639999986 0.239999995 -2.39999986 
0.639999986 0.239999995 -2.31999993 
0.719999969 0.159999996 -2.31999993 
0.719999969 0.239999995 -2.31999993 
0.639999986 0.159999996 -2.24000001 
0.639999986 0.159999996 -2.15999985 
0.639999986 0.239999995 -2.24000001 
0.639999986 0.239999995 -2.15999985 
0.719999969 0.159999996 -2.24000001 
0.719999969 0.159999996 -2.15999985 
0.719999969 0.239999995 -2.24000001 
0.719999969 0.239999995 -2.15999985 
0.639999986 0.159999996 -2.07999992 
0.639999986 0.159999996 -2 
0.639999986 0.239999995 -2.07999992 
0.639999986 0.239999995 -2 
0.719999969 0.159999996 -2.07999992 
0.719999969 0.159999996 -2 
0.719999969 0.239999995 -2.07999992 
0.719999969 0.239999995 -2 
0.639999986 0.159999996 -1.91999996 
0.639999986 0.159999996 -1.83999991 
0.639999986 0.239999995 -1.91999996 
0.639999986 0.239999995 -1.83999991 
0.719999969 0.159999996 -1.91999996 
0.719999969 0.159999996 -1.83999991 
0.719999969 0.239999995 -1.91999996 
0.719999969 0.239999995 -1.83999991 
0.639999986 0.159999996 -1.75999999 
0.639999986 0.159999996 -1.67999995 
0.639999986 0.239999995 -1.75999999 
0.639999986 0.239999995 -1.67999995 
0.719999969 0.159999996 -1.75999999 
0.719999969 0.159999996 -1.67999995 
0.719999969 0.239999995 -1.75999999 
0.719999969 0.239999995 -1.67999995 
0.639999986 0.159999996 -1.5999999 
0.639999986 0.159999996 -1.51999998 
0.639999986 0.239999995 -1.5999999 
0.639999986 0.239999995 -1.51999998 
0.719999969 0.159999996 -1.5999999 
0.719999969 0.159999996 -1.51999998 
0.719999969 0.239999995 -1.5999999 
0.719999969 0.239999995 -1.51999998 
0.639999986 0.159999996 -1.43999994 
0.639999986 0.159999996 -1.36000001 
0.639999986 0.239999995 -1.43999994 
0.639999986 0.239999995 -1.36000001 
0.719999969 0.159999996 -1.43999994 
0.719999969 0.159999996 -1.36000001 
0.719999969 0.239999995 -1.43999994 
0.719999969 0.239999995 -1.36000001 
0.799999952 0 -2.31999993 
0.799999952 0.0799999982 -2.31999993 
0.879999995 0 -2.31999993 
0.879999995 0.0799999982 -2.31999993 
0.799999952 0 -2.24000001 
0.799999952 0 -2.15999985 
0.799999952 0.0799999982 -2.24000001 
0.799999952 0.0799999982 -2.15999985 
0.879999995 0 -2.24000001 
0.879999995 0 -2.15999985 
0.879999995 0.0799999982 -2.24000001 
0.879999995 0.0799999982 -2.15999985 
0.799999952 0 -2.07999992 
0.799999952 0 -2 
0.799999952 0.0799999982 -2.07999992 
0.799999952 0.0799999982 -2 
0.879999995 0 -2.07999992 
0.879999995 0 -2 
0.879999995 0.0799999982 -2.07999992 
0.879999995 0.0799999982 -2 
0.799999952 0 -1.91999996 
0.799999952 0 -1.83999991 
0.799999952 0.0799999982 -1.91999996 
0.799999952 0.0799999982 -1.83999991 
0.879999995 0 -1.91999996 
0.879999995 0 -1.83999991 
0.879999995 0.0799999982 -1.91999996 
0.879999995 0.0799999982 -1.83999991 
0.799999952 0 -1.75999999 
0.799999952 0 -1.67999995 
0.799999952 0.0799999982 -1.75999999 
0.799999952 0.0799999982 -1.67999995 
0.879999995 0 -1.75999999 
0.879999995 0 -1.67999995 
0.879999995 0.0799999982 -1.75999999 
0.879999995 0.0799999982 -1.67999995 
0.799999952 0 -1.5999999 
0.799999952 0 -1.51999998 
0.799999952 0.0799999982 -1.5999999 
0.799999952 0.0799999982 -1.51999998 
0.879999995 0 -1.5999999 
0.879999995 0 -1.51999998 
0.879999995 0.0799999982 -1.5999999 
0.879999995 0.0799999982 -1.51999998 
0.799999952 0 -1.43999994 
0.799999952 0 -1.36000001 
0.799999952 0.0799999982 -1.43999994 
0.799999952 0.0799999982 -1.36000001 
0.879999995 0 -1.43999994 
0.879999995 0 -1.36000001 
0.879999995 0.0799999982 -1.43999994 
0.879999995 0.0799999982 -1.36000001 
0.799999952 0.159999996 -2.31999993 
0.799999952 0.239999995 -2.31999993 
0.879999995 0.159999996 -2.31999993 
0.879999995 0.239999995 -2.31999993 
0.799999952 0.159999996 -2.24000001 
0.799999952 0.159999996 -2.15999985 
0.799999952 0.239999995 -2.24000001 
0.799999952 0.239999995 -2.15999985 
0.879999995 0.159999996 -2.24000001 
0.879999995 0.159999996 -2.15999985 
0.879999995 0.239999995 -2.24000001 
0.879999995 0.239999995 -2.15999985 
0.799999952 0.159999996 -2.07999992 
0.799999952 0.159999996 -2 
0.799999952 0.239999995 -2.07999992 
0.799999952 0.239999995 -2 
0.879999995 0.159999996 -2.07999992 
0.879999995 0.159999996 -2 
0.879999995 0.239999995 -2.07999992 
0.879999995 0.239999995 -2 
0.799999952 0.159999996 -1.91999996 
0.799999952 0.159999996 -1.83999991 
0.799999952 0.239999995 -1.91999996 
0.799999952 0.239999995 -1.83999991 
0.879999995 0.159999996 -1.91999996 
0.879999995 0.159999996 -1.83999991 
0.879999995 0.239999995 -1.91999996 
0.879999995 0.239999995 -1.83999991 
0.799999952 0.159999996 -1.75999999 
0.799999952 0.159999996 -1.67999995 
0.799999952 0.239999995 -1.75999999 
0.799999952 0.239999995 -1.67999995 
0.879999995 0.159999996 -1.75999999 
0.879999995 0.159999996 -1.67999995 
0.879999995 0.239999995 -1.75999999 
0.879999995 0.239999995 -1.67999995 
0.799999952 0.159999996 -1.5999999 
0.799999952 0.159999996 -1.51999998 
0.799999952 0.239999995 -1.5999999 
0.799999952 0.239999995 -1.51999998 
0.879999995 0.159999996 -1.5999999 
0.879999995 0.159999996 -1.51999998 
0.879999995 0.239999995 -1.5999999 
0.879999995 0.239999995 -1.51999998 
0.799999952 0.159999996 -1.43999994 
0.799999952 0.159999996 -1.36000001 
0.799999952 0.239999995 -1.43999994 
0.799999952 0.239999995 -1.36000001 
0.879999995 0.159999996 -1.43999994 
0.879999995 0.159999996 -1.36000001 
0.879999995 0.239999995 -1.43999994 
0.879999995 0.239999995 -1.36000001 
0.959999979 0 -2.24000001 
0.959999979 0 -2.15999985 
0.959999979 0.0799999982 -2.24000001 
0.959999979 0.0799999982 -2.15999985 
1.03999996 0 -2.24000001 
1.03999996 0 -2.15999985 
1.03999996 0.0799999982 -2.24000001 
1.03999996 0.0799999982 -2.15999985 
0.959999979 0 -2.07999992 
0.959999979 0 -2 
0.959999979 0.0799999982 -2.07999992 
0.959999979 0.0799999982 -2 
1.03999996 0 -2.07999992 
1.03999996 0 -2 
1.03999996 0.0799999982 -2.07999992 
1.03999996 0.0799999982 -2 
0.959999979 0 -1.91999996 
0.959999979 0 -1.83999991 
0.959999979 0.0799999982 -1.91999996 
0.959999979 0.0799999982 -1.83999991 
1.03999996 0 -1.91999996 
1.03999996 0 -1.83999991 
1.03999996 0.0799999982 -1.91999996 
1.03999996 0.0799999982 -1.83999991 
0.959999979 0 -1.75999999 
0.959999979 0 -1.67999995 
0.959999979 0.0799999982 -1.75999999 
0.959999979 0.0799999982 -1.67999995 
1.03999996 0 -1.75999999 
1.03999996 0 -1.67999995 
1.03999996 0.0799999982 -1.75999999 
1.03999996 0.0799999982 -1.67999995 
0.959999979 0 -1.5999999 
0.959999979 0 -1.51999998 
0.959999979 0.0799999982 -1.5999999 
0.959999979 0.0799999982 -1.51999998 
1.03999996 0 -1.5999999 
1.03999996 0 -1.51999998 
1.03999996 0.0799999982 -1.5999999 
1.03999996 0.0799999982 -1.51999998 
0.959999979 0 -1.43999994 
0.959999979 0 -1.36000001 
0.959999979 0.0799999982 -1.43999994 
0.959999979 0.0799999982 -1.36000001 
1.03999996 0 -1.43999994 
1.03999996 0 -1.36000001 
1.03999996 0.0799999982 -1.43999994 
1.03999996 0.0799999982 -1.36000001 
0.959999979 0.159999996 -2.24000001 
0.959999979 0.159999996 -2.15999985 
0.959999979 0.239999995 -2.24000001 
0.959999979 0.239999995 -2.15999985 
1.03999996 0.159999996 -2.24000001 
1.03999996 0.159999996 -2.15999985 
1.03999996 0.239999995 -2.24000001 
1.03999996 0.239999995 -2.15999985 
0.959999979 0.159999996 -2.07999992 
0.959999979 0.159999996 -2 
0.959999979 0.239999995 -2.07999992 
0.959999979 0.239999995 -2 
1.03999996 0.159999996 -2.07999992 
1.03999996 0.159999996 -2 
1.03999996 0.239999995 -2.07999992 
1.03999996 0.239999995 -2 
0.959999979 0.159999996 -1.91999996 
0.959999979 0.159999996 -1.83999991 
0.959999979 0.239999995 -1.91999996 
0.959999979 0.239999995 -1.83999991 
1.03999996 0.159999996 -1.91999996 
1.03999996 0.159999996 -1.83999991 
1.03999996 0.239999995 -1.91999996 
1.03999996 0.239999995 -1.83999991 
0.959999979 0.159999996 -1.75999999 
0.959999979 0.159999996 -1.67999995 
0.959999979 0.239999995 -1.75999999 
0.959999979 0.239999995 -1.67999995 
1.03999996 0.159999996 -1.75999999 
1.03999996 0.159999996 -1.67999995 
1.03999996 0.239999995 -1.75999999 
1.03999996 0.239999995 -1.67999995 
0.959999979 0.159999996 -1.5999999 
0.959999979 0.159999996 -1.51999998 
0.959999979 0.239999995 -1.5999999 
0.959999979 0.239999995 -1.51999998 
1.03999996 0.159999996 -1.5999999 
1.03999996 0.159999996 -1.51999998 
1.03999996 0.239999995 -1.5999999 
1.03999996 0.239999995 -1.51999998 
0.959999979 0.159999996 -1.43999994 
0.959999979 0.159999996 -1.36000001 
0.959999979 0.239999995 -1.43999994 
0.959999979 0.239999995 -1.36000001 
1.03999996 0.159999996 -1.43999994 
1.03999996 0.159999996 -1.36000001 
1.03999996 0.239999995 -1.43999994 
1.03999996 0.239999995 -1.36000001 
1.12 0 -2.15999985 
1.12 0.0799999982 -2.15999985 
1.19999993 0 -2.15999985 
1.19999993 0.0799999982 -2.15999985 
1.12 0 -2.07999992 
1.12 0 -2 
1.12 0.0799999982 -2.07999992 
1.12 0.0799999982 -2 
1.19999993 0 -2.07999992 
1.19999993 0 -2 
1.19999993 0.0799999982 -2.07999992 
1.19999993 0.0799999982 -2 
1.12 0 -1.91999996 
1.12 0 -1.83999991 
1.12 0.0799999982 -1.91999996 
1.12 0.0799999982 -1.83999991 
1.19999993 0 -1.91999996 
1.19999993 0 -1.83999991 
1.19999993 0.0799999982 -1.91999996 
1.19999993 0.0799999982 -1.83999991 
1.12 0 -1.75999999 
1.12 0 -1.67999995 
1.12 0.0799999982 -1.75999999 
1.12 0.0799999982 -1.67999995 
1.19999993 0 -1.75999999 
1.19999993 0 -1.67999995 
1.19999993 0.0799999982 -1.75999999 
1.19999993 0.0799999982 -1.67999995 
1.12 0 -1.5999999 
1.12 0 -1.51999998 
1.12 0.0799999982 -1.5999999 
1.12 0.0799999982 -1.51999998 
1.19999993 0 -1.5999999 
1.19999993 0 -1.51999998 
1.19999993 0.0799999982 -1.5999999 
1.19999993 0.0799999982 -1.51999998 
1.12 0 -1.43999994 
1.12 0 -1.36000001 
1.12 0.0799999982 -1.43999994 
1.12 0.0799999982 -1.36000001 
1.19999993 0 -1.43999994 
1.19999993 0 -1.36000001 
1.19999993 0.0799999982 -1.43999994 
1.19999993 0.0799999982 -1.36000001 
1.12 0.159999996 -2.15999985 
1.12 0.239999995 -2.15999985 
1.19999993 0.159999996 -2.15999985 
1.19999993 0.239999995 -2.15999985 
1.12 0.159999996 -2.07999992 
1.12 0.159999996 -2 
1.12 0.239999995 -2.07999992 
1.12 0.239999995 -2 
1.19999993 0.159999996 -2.07999992 
1.19999993 0.159999996 -2 
1.19999993 0.239999995 -2.07999992 
1.19999993 0.239999995 -2 
1.12 0.159999996 -1.91999996 
1.12 0.159999996 -1.83999991 
1.12 0.239999995 -1.91999996 
1.12 0.239999995 -1.83999991 
1.19999993 0.159999996 -1.91999996 
1.19999993 0.159999996 -1.83999991 
1.19999993 0.239999995 -1.91999996 
1.19999993 0.239999995 -1.83999991 
1.12 0.159999996 -1.75999999 
1.12 0.159999996 -1.67999995 
1.12 0.239999995 -1.75999999 
1.12 0.239999995 -1.67999995 
1.19999993 0.159999996 -1.75999999 
1.19999993 0.159999996 -1.67999995 
1.19999993 0.239999995 -1.75999999 
1.19999993 0.239999995 -1.67999995 
1.12 0.159999996 -1.5999999 
1.12 0.159999996 -1.51999998 
1.12 0.239999995 -1.5999999 
1.12 0.239999995 -1.51999998 
1.19999993 0.159999996 -1.5999999 
1.19999993 0.159999996 -1.51999998 
1.19999993 0.239999995 -1.5999999 
1.19999993 0.239999995 -1.51999998 
1.12 0.159999996 -1.43999994 
1.12 0.159999996 -1.36000001 
1.12 0.239999995 -1.43999994 
1.12 0.239999995 -1.36000001 
1.19999993 0.159999996 -1.43999994 
1.19999993 0.159999996 -1.36000001 
1.19999993 0.239999995 -1.43999994 
1.19999993 0.239999995 -1.36000001 
0 0 -1.27999997 
0 0 -1.19999993 
0 0.0799999982 -1.27999997 
0 0.0799999982 -1.19999993 
0.0799999982 0 -1.27999997 
0.0799999982 0 -1.19999993 
0.0799999982 0.0799999982 -1.27999997 
0.0799999982 0.0799999982 -1.19999993 
0 0 -1.12 
0 0 -1.03999996 
0 0.0799999982 -1.12 
0 0.0799999982 -1.03999996 
0.0799999982 0 -1.12 
0.0799999982 0 -1.03999996 
0.0799999982 0.0799999982 -1.12 
0.0799999982 0.0799999982 -1.03999996 
0 0 -0.959999979 
0 0 -0.879999995 
0 0.0799999982 -0.959999979 
0 0.0799999982 -0.879999995 
0.0799999982 0 -0.959999979 
0.0799999982 0 -0.879999995 
0.0799999982 0.0799999982 -0.959999979 
0.0799999982 0.0799999982 -0.879999995 
0 0 -0.799999952 
0 0 -0.719999969 
0 0.0799999982 -0.799999952 
0 0.0799999982 -0.719999969 
0.0799999982 0 -0.799999952 
0.0799999982 0 -0.719999969 
0.0799999982 0.0799999982 -0.799999952 
0.0799999982 0.0799999982 -0.719999969 
0 0 -0.639999986 
0 0 -0.560000002 
0 0.0799999982 -0.639999986 
0 0.0799999982 -0.560000002 
0.0799999982 0 -0.639999986 
0.0799999982 0 -0.560000002 
0.0799999982 0.0799999982 -0.639999986 
0.0799999982 0.0799999982 -0.560000002 
0 0 -0.479999989 
0 0 -0.399999976 
0 0.0799999982 -0.479999989 
0 0.0799999982 -0.399999976 
0.0799999982 0 -0.479999989 
0.0799999982 0 -0.399999976 
0.0799999982 0.0799999982 -0.479999989 
0.0799999982 0.0799999982 -0.399999976 
0 0 -0.319999993 
0 0 -0.239999995 
0 0.0799999982 -0.319999993 
0 0.0799999982 -0.239999995 
0.0799999982 0 -0.319999993 
0.0799999982 0 -0.239999995 
0.0799999982 0.0799999982 -0.319999993 
0.0799999982 0.0799999982 -0.239999995 
0 0 -0.159999996 
0 0 -0.0799999982 
0 0.0799999982 -0.159999996 
0 0.0799999982 -0.0799999982 
0.0799999982 0 -0.159999996 
0.0799999982 0 -0.0799999982 
0.0799999982 0.0799999982 -0.159999996 
0.0799999982 0.0799999982 -0.0799999982 
0 0.159999996 -1.27999997 
0 0.159999996 -1.19999993 
0 0.239999995 -1.27999997 
0 0.239999995 -1.19999993 
0.0799999982 0.159999996 -1.27999997 
0.0799999982 0.159999996 -1.19999993 
0.0799999982 0.239999995 -1.27999997 
0.0799999982 0.239999995 -1.19999993 
0 0.159999996 -1.12 
0 0.159999996 -1.03999996 
0 0.239999995 -1.12 
0 0.239999995 -1.03999996 
0.0799999982 0.159999996 -1.12 
0.0799999982 0.159999996 -1.03999996 
0.0799999982 0.239999995 -1.12 
0.0799999982 0.239999995 -1.03999996 
0 0.159999996 -0.959999979 
0 0.159999996 -0.879999995 
0 0.239999995 -0.959999979 
0 0.239999995 -0.879999995 
0.0799999982 0.159999996 -0.959999979 
0.0799999982 0.159999996 -0.879999995 
0.0799999982 0.239999995 -0.959999979 
0.0799999982 0.239999995 -0.879999995 
0 0.159999996 -0.799999952 
0 0.159999996 -0.719999969 
0 0.239999995 -0.799999952 
0 0.239999995 -0.719999969 
0.0799999982 0.159999996 -0.799999952 
0.0799999982 0.159999996 -0.719999969 
0.0799999982 0.239999995 -0.799999952 
0.0799999982 0.239999995 -0.719999969 
0 0.159999996 -0.639999986 
0 0.159999996 -0.560000002 
0 0.239999995 -0.639999986 
0 0.239999995 -0.560000002 
0.0799999982 0.159999996 -0.639999986 
0.0799999982 0.159999996 -0.560000002 
0.0799999982 0.239999995 -0.639999986 
0.0799999982 0.239999995 -0.560000002 
0 0.159999996 -0.479999989 
0 0.159999996 -0.399999976 
0 0.239999995 -0.479999989 
0 0.239999995 -0.399999976 
0.0799999982 0.159999996 -0.479999989 
0.0799999982 0.159999996 -0.399999976 
0.0799999982 0.239999995 -0.479999989 
0.0799999982 0.239999995 -0.399999976 
0 0.159999996 -0.319999993 
0 0.159999996 -0.239999995 
0 0.239999995 -0.319999993 
0 0.239999995 -0.239999995 
0.0799999982 0.159999996 -0.319999993 
0.0799999982 0.159999996 -0.239999995 
0.0799999982 0.239999995 -0.319999993 
0.0799999982 0.239999995 -0.239999995 
0 0.159999996 -0.159999996 
0 0.159999996 -0.0799999982 
0 0.239999995 -0.159999996 
0 0.239999995 -0.0799999982 
0.0799999982 0.159999996 -0.159999996 
0.0799999982 0.159999996 -0.0799999982 
0.0799999982 0.239999995 -0.159999996 
0.0799999982 0.239999995 -0.0799999982 
0.159999996 0 -1.27999997 
0.159999996 0 -1.19999993 
0.159999996 0.0799999982 -1.27999997 
0.159999996 0.0799999982 -1.19999993 
0.239999995 0 -1.27999997 
0.239999995 0 -1.19999993 
0.239999995 0.0799999982 -1.27999997 
0.239999995 0.0799999982 -1.19999993 
0.159999996 0 -1.12 
0.159999996 0 -1.03999996 
0.159999996 0.0799999982 -1.12 
0.159999996 0.0799999982 -1.03999996 
0.239999995 0 -1.12 
0.239999995 0 -1.03999996 
0.239999995 0.0799999982 -1.12 
0.239999995 0.0799999982 -1.03999996 
0.159999996 0 -0.959999979 
0.159999996 0 -0.879999995 
0.159999996 0.0799999982 -0.959999979 
0.159999996 0.0799999982 -0.879999995 
0.239999995 0 -0.959999979 
0.239999995 0 -0.879999995 
0.239999995 0.0799999982 -0.959999979 
0.239999995 0.0799999982 -0.879999995 
0.159999996 0 -0.799999952 
0.159999996 0 -0.719999969 
0.159999996 0.0799999982 -0.799999952 
0.159999996 0.0799999982 -0.719999969 
0.239999995 0 -0.799999952 
0.239999995 0 -0.719999969 
0.239999995 0.0799999982 -0.799999952 
0.239999995 0.0799999982 -0.719999969 
0.159999996 0 -0.639999986 
0.159999996 0 -0.560000002 
0.159999996 0.0799999982 -0.639999986 
0.159999996 0.0799999982 -0.560000002 
0.239999995 0 -0.639999986 
0.239999995 0 -0.560000002 
0.239999995 0.0799999982 -0.639999986 
0.239999995 0.0799999982 -0.560000002 
0.159999996 0 -0.479999989 
0.159999996 0 -0.399999976 
0.159999996 0.0799999982 -0.479999989 
0.159999996 0.0799999982 -0.399999976 
0.239999995 0 -0.479999989 
0.239999995 0 -0.399999976 
0.239999995 0.0799999982 -0.479999989 
0.239999995 0.0799999982 -0.399999976 
0.159999996 0 -0.319999993 
0.159999996 0 -0.239999995 
0.159999996 0.0799999982 -0.319999993 
0.159999996 0.0799999982 -0.239999995 
0.239999995 0 -0.319999993 
0.239999995 0 -0.239999995 
0.239999995 0.0799999982 -0.319999993 
0.239999995 0.0799999982 -0.239999995 
0.159999996 0 -0.159999996 
0.159999996 0 -0.0799999982 
0.159999996 0.0799999982 -0.159999996 
0.159999996 0.0799999982 -0.0799999982 
0.239999995 0 -0.159999996 
0.239999995 0 -0.0799999982 
0.239999995 0.0799999982 -0.159999996 
0.239999995 0.0799999982 -0.0799999982 
0.159999996 0.159999996 -1.27999997 
0.159999996 0.159999996 -1.19999993 
0.159999996 0.239999995 -1.27999997 
0.159999996 0.239999995 -1.19999993 
0.239999995 0.159999996 -1.27999997 
0.239999995 0.159999996 -1.19999993 
0.239999995 0.239999995 -1.27999997 
0.239999995 0.239999995 -1.19999993 
0.159999996 0.159999996 -1.12 
0.159999996 0.159999996 -1.03999996 
0.159999996 0.239999995 -1.12 
0.159999996 0.239999995 -1.03999996 
0.239999995 0.159999996 -1.12 
0.239999995 0.159999996 -1.03999996 
0.239999995 0.239999995 -1.12 
0.239999995 0.239999995 -1.03999996 
0.159999996 0.159999996 -0.959999979 
0.159999996 0.159999996 -0.879999995 
0.159999996 0.239999995 -0.959999979 
0.159999996 0.239999995 -0.879999995 
0.239999995 0.159999996 -0.959999979 
0.239999995 0.159999996 -0.879999995 
0.239999995 0.239999995 -0.959999979 
0.239999995 0.239999995 -0.879999995 
0.159999996 0.159999996 -0.799999952 
0.159999996 0.159999996 -0.719999969 
0.159999996 0.239999995 -0.799999952 
0.159999996 0.239999995 -0.719999969 
0.239999995 0.159999996 -0.799999952 
0.239999995 0.159999996 -0.719999969 
0.239999995 0.239999995 -0.799999952 
0.239999995 0.239999995 -0.719999969 
0.159999996 0.159999996 -0.639999986 
0.159999996 0.159999996 -0.560000002 
0.159999996 0.239999995 -0.639999986 
0.159999996 0.239999995 -0.560000002 
0.239999995 0.159999996 -0.639999986 
0.239999995 0.159999996 -0.560000002 
0.239999995 0.239999995 -0.639999986 
0.239999995 0.239999995 -0.560000002 
0.159999996 0.159999996 -0.479999989 
0.159999996 0.159999996 -0.399999976 
0.159999996 0.239999995 -0.479999989 
0.159999996 0.239999995 -0.399999976 
0.239999995 0.159999996 -0.479999989 
0.239999995 0.159999996 -0.399999976 
0.239999995 0.239999995 -0.479999989 
0.239999995 0.239999995 -0.399999976 
0.159999996 0.159999996 -0.319999993 
0.159999996 0.159999996 -0.239999995 
0.159999996 0.239999995 -0.319999993 
0.159999996 0.239999995 -0.239999995 
0.239999995 0.159999996 -0.319999993 
0.239999995 0.159999996 -0.239999995 
0.239999995 0.239999995 -0.319999993 
0.239999995 0.239999995 -0.239999995 
0.159999996 0.159999996 -0.159999996 
0.159999996 0.159999996 -0.0799999982 
0.159999996 0.239999995 -0.159999996 
0.159999996 0.239999995 -0.0799999982 
0.239999995 0.159999996 -0.159999996 
0.239999995 0.159999996 -0.0799999982 
0.239999995 0.239999995 -0.159999996 
0.239999995 0.239999995 -0.0799999982 
0.319999993 0 -1.27999997 
0.319999993 0 -1.19999993 
0.319999993 0.0799999982 -1.27999997 
0.319999993 0.0799999982 -1.19999993 
0.399999976 0 -1.27999997 
0.399999976 0 -1.19999993 
0.399999976 0.0799999982 -1.27999997 
0.399999976 0.0799999982 -1.19999993 
0.319999993 0 -1.12 
0.319999993 0 -1.03999996 
0.319999993 0.0799999982 -1.12 
0.319999993 0.0799999982 -1.03999996 
0.399999976 0 -1.12 
0.399999976 0 -1.03999996 
0.399999976 0.0799999982 -1.12 
0.399999976 0.0799999982 -1.03999996 
0.319999993 0 -0.959999979 
0.319999993 0 -0.879999995 
0.319999993 0.0799999982 -0.959999979 
0.319999993 0.0799999982 -0.879999995 
0.399999976 0 -0.959999979 
0.399999976 0 -0.879999995 
0.399999976 0.0799999982 -0.959999979 
0.399999976 0.0799999982 -0.879999995 
0.319999993 0 -0.799999952 
0.319999993 0 -0.719999969 
0.319999993 0.0799999982 -0.799999952 
0.319999993 0.0799999982 -0.719999969 
0.399999976 0 -0.799999952 
0.399999976 0 -0.719999969 
0.399999976 0.0799999982 -0.799999952 
0.399999976 0.0799999982 -0.719999969 
0.319999993 0 -0.639999986 
0.319999993 0 -0.560000002 
0.319999993 0.0799999982 -0.639999986 
0.319999993 0.0799999982 -0.560000002 
0.399999976 0 -0.639999986 
0.399999976 0 -0.560000002 
0.399999976 0.0799999982 -0.639999986 
0.399999976 0.0799999982 -0.560000002 
0.319999993 0 -0.479999989 
0.319999993 0 -0.399999976 
0.319999993 0.0799999982 -0.479999989 
0.319999993 0.0799999982 -0.399999976 
0.399999976 0 -0.479999989 
0.399999976 0 -0.399999976 
0.399999976 0.0799999982 -0.479999989 
0.399999976 0.0799999982 -0.399999976 
0.319999993 0 -0.319999993 
0.319999993 0 -0.239999995 
0.319999993 0.0799999982 -0.319999993 
0.319999993 0.0799999982 -0.239999995 
0.399999976 0 -0.319999993 
0.399999976 0 -0.239999995 
0.399999976 0.0799999982 -0.319999993 
0.399999976 0.0799999982 -0.239999995 
0.319999993 0 -0.159999996 
0.319999993 0 -0.0799999982 
0.319999993 0.0799999982 -0.159999996 
0.319999993 0.0799999982 -0.0799999982 
0.399999976 0 -0.159999996 
0.399999976 0 -0.0799999982 
0.399999976 0.0799999982 -0.159999996 
0.399999976 0.0799999982 -0.0799999982 
0.319999993 0.159999996 -1.27999997 
0.319999993 0.159999996 -1.19999993 
0.319999993 0.239999995 -1.27999997 
0.319999993 0.239999995 -1.19999993 
0.399999976 0.159999996 -1.27999997 
0.399999976 0.159999996 -1.19999993 
0.399999976 0.239999995 -1.27999997 
0.399999976 0.239999995 -1.19999993 
0.319999993 0.159999996 -1.12 
0.319999993 0.159999996 -1.03999996 
0.319999993 0.239999995 -1.12 
0.319999993 0.239999995 -1.03999996 
0.399999976 0.159999996 -1.12 
0.399999976 0.159999996 -1.03999996 
0.399999976 0.239999995 -1.12 
0.399999976 0.239999995 -1.03999996 
0.319999993 0.159999996 -0.959999979 
0.319999993 0.159999996 -0.879999995 
0.319999993 0.239999995 -0.959999979 
0.319999993 0.239999995 -0.879999995 
0.399999976 0.159999996 -0.959999979 
0.399999976 0.159999996 -0.879999995 
0.399999976 0.239999995 -0.959999979 
0.399999976 0.239999995 -0.879999995 
0.319999993 0.159999996 -0.799999952 
0.319999993 0.159999996 -0.719999969 
0.319999993 0.239999995 -0.799999952 
0.319999993 0.239999995 -0.719999969 
0.399999976 0.159999996 -0.799999952 
0.399999976 0.159999996 -0.719999969 
0.399999976 0.239999995 -0.799999952 
0.399999976 0.239999995 -0.719999969 
0.319999993 0.159999996 -0.639999986 
0.319999993 0.159999996 -0.560000002 
0.319999993 0.239999995 -0.639999986 
0.319999993 0.239999995 -0.560000002 
0.399999976 0.159999996 -0.639999986 
0.399999976 0.159999996 -0.560000002 
0.399999976 0.239999995 -0.639999986 
0.399999976 0.239999995 -0.560000002 
0.319999993 0.159999996 -0.479999989 
0.319999993 0.159999996 -0.399999976 
0.319999993 0.239999995 -0.479999989 
0.319999993 0.239999995 -0.399999976 
0.399999976 0.159999996 -0.479999989 
0.399999976 0.159999996 -0.399999976 
0.399999976 0.239999995 -0.479999989 
0.399999976 0.239999995 -0.399999976 
0.319999993 0.159999996 -0.319999993 
0.319999993 0.159999996 -0.239999995 
0.319999993 0.239999995 -0.319999993 
0.319999993 0.239999995 -0.239999995 
0.399999976 0.159999996 -0.319999993 
0.399999976 0.159999996 -0.239999995 
0.399999976 0.239999995 -0.319999993 
0.399999976 0.239999995 -0.239999995 
0.319999993 0.159999996 -0.159999996 
0.319999993 0.159999996 -0.0799999982 
0.319999993 0.239999995 -0.159999996 
0.319999993 0.239999995 -0.0799999982 
0.399999976 0.159999996 -0.159999996 
0.399999976 0.159999996 -0.0799999982 
0.399999976 0.239999995 -0.159999996 
0.399999976 0.239999995 -0.0799999982 
0.479999989 0 -1.27999997 
0.479999989 0 -1.19999993 
0.479999989 0.0799999982 -1.27999997 
0.479999989 0.0799999982 -1.19999993 
0.560000002 0 -1.27999997 
0.560000002 0 -1.19999993 
0.560000002 0.0799999982 -1.27999997 
0.560000002 0.0799999982 -1.19999993 
0.479999989 0 -1.12 
0.479999989 0 -1.03999996 
0.479999989 0.0799999982 -1.12 
0.479999989 0.0799999982 -1.03999996 
0.560000002 0 -1.12 
0.560000002 0 -1.03999996 
0.560000002 0.0799999982 -1.12 
0.560000002 0.0799999982 -1.03999996 
0.479999989 0 -0.959999979 
0.479999989 0 -0.879999995 
0.479999989 0.0799999982 -0.959999979 
0.479999989 0.0799999982 -0.879999995 
0.560000002 0 -0.959999979 
0.560000002 0 -0.879999995 
0.560000002 0.0799999982 -0.959999979 
0.560000002 0.0799999982 -0.879999995 
0.479999989 0 -0.799999952 
0.479999989 0 -0.719999969 
0.479999989 0.0799999982 -0.799999952 
0.479999989 0.0799999982 -0.719999969 
0.560000002 0 -0.799999952 
0.560000002 0 -0.719999969 
0.560000002 0.0799999982 -0.799999952 
0.560000002 0.0799999982 -0.719999969 
0.479999989 0 -0.639999986 
0.479999989 0 -0.560000002 
0.479999989 0.0799999982 -0.639999986 
0.479999989 0.0799999982 -0.560000002 
0.560000002 0 -0.639999986 
0.560000002 0 -0.560000002 
0.560000002 0.0799999982 -0.639999986 
0.560000002 0.0799999982 -0.560000002 
0.479999989 0 -0.479999989 
0.479999989 0 -0.399999976 
0.479999989 0.0799999982 -0.479999989 
0.479999989 0.0799999982 -0.399999976 
0.560000002 0 -0.479999989 
0.560000002 0 -0.399999976 
0.560000002 0.0799999982 -0.479999989 
0.560000002 0.0799999982 -0.399999976 
0.479999989 0 -0.319999993 
0.479999989 0 -0.239999995 
0.479999989 0.0799999982 -0.319999993 
0.479999989 0.0799999982 -0.239999995 
0.560000002 0 -0.319999993 
0.560000002 0 -0.239999995 
0.560000002 0.0799999982 -0.319999993 
0.560000002 0.0799999982 -0.239999995 
0.479999989 0 -0.159999996 
0.479999989 0 -0.0799999982 
0.479999989 0.0799999982 -0.159999996 
0.479999989 0.0799999982 -0.0799999982 
0.560000002 0 -0.159999996 
0.560000002 0 -0.0799999982 
0.560000002 0.0799999982 -0.159999996 
0.560000002 0.0799999982 -0.0799999982 
0.479999989 0.159999996 -1.27999997 
0.479999989 0.159999996 -1.19999993 
0.479999989 0.239999995 -1.27999997 
0.479999989 0.239999995 -1.19999993 
0.560000002 0.159999996 -1.27999997 
0.560000002 0.159999996 -1.19999993 
0.560000002 0.239999995 -1.27999997 
0.560000002 0.239999995 -1.19999993 
0.479999989 0.159999996 -1.12 
0.479999989 0.159999996 -1.03999996 
0.479999989 0.239999995 -1.12 
0.479999989 0.239999995 -1.03999996 
0.560000002 0.159999996 -1.12 
0.560000002 0.159999996 -1.03999996 
0.560000002 0.239999995 -1.12 
0.560000002 0.239999995 -1.03999996 
0.479999989 0.159999996 -0.959999979 
0.479999989 0.159999996 -0.879999995 
0.479999989 0.239999995 -0.959999979 
0.479999989 0.239999995 -0.879999995 
0.560000002 0.159999996 -0.959999979 
0.560000002 0.159999996 -0.879999995 
0.560000002 0.239999995 -0.959999979 
0.560000002 0.239999995 -0.879999995 
0.479999989 0.159999996 -0.799999952 
0.479999989 0.159999996 -0.719999969 
0.479999989 0.239999995 -0.799999952 
0.479999989 0.239999995 -0.719999969 
0.560000002 0.159999996 -0.799999952 
0.560000002 0.159999996 -0.719999969 
0.560000002 0.239999995 -0.799999952 
0.560000002 0.239999995 -0.719999969 
0.479999989 0.159999996 -0.639999986 
0.479999989 0.159999996 -0.560000002 
0.479999989 0.239999995 -0.639999986 
0.479999989 0.239999995 -0.560000002 
0.560000002 0.159999996 -0.639999986 
0.560000002 0.159999996 -0.560000002 
0.560000002 0.239999995 -0.639999986 
0.560000002 0.239999995 -0.560000002 
0.479999989 0.159999996 -0.479999989 
0.479999989 0.159999996 -0.399999976 
0.479999989 0.239999995 -0.479999989 
0.479999989 0.239999995 -0.399999976 
0.560000002 0.159999996 -0.479999989 
0.560000002 0.159999996 -0.399999976 
0.560000002 0.239999995 -0.479999989 
0.560000002 0.239999995 -0.399999976 
0.479999989 0.159999996 -0.319999993 
0.479999989 0.159999996 -0.239999995 
0.479999989 0.239999995 -0.319999993 
0.479999989 0.239999995 -0.239999995 
0.560000002 0.159999996 -0.319999993 
0.560000002 0.159999996 -0.239999995 
0.560000002 0.239999995 -0.319999993 
0.560000002 0.239999995 -0.239999995 
0.479999989 0.159999996 -0.159999996 
0.479999989 0.159999996 -0.0799999982 
0.479999989 0.239999995 -0.159999996 
0.479999989 0.239999995 -0.0799999982 
0.560000002 0.159999996 -0.159999996 
0.560000002 0.159999996 -0.0799999982 
0.560000002 0.239999995 -0.159999996 
0.560000002 0.239999995 -0.0799999982 
0.639999986 0 -1.27999997 
0.639999986 0 -1.19999993 
0.639999986 0.0799999982 -1.27999997 
0.639999986 0.0799999982 -1.19999993 
0.719999969 0 -1.27999997 
0.719999969 0 -1.19999993 
0.719999969 0.0799999982 -1.27999997 
0.719999969 0.0799999982 -1.19999993 
0.639999986 0 -1.12 
0.639999986 0 -1.03999996 
0.639999986 0.0799999982 -1.12 
0.639999986 0.0799999982 -1.03999996 
0.719999969 0 -1.12 
0.719999969 0 -1.03999996 
0.719999969 0.0799999982 -1.12 
0.719999969 0.0799999982 -1.03999996 
0.639999986 0 -0.959999979 
0.639999986 0 -0.879999995 
0.639999986 0.0799999982 -0.959999979 
0.639999986 0.0799999982 -0.879999995 
0.719999969 0 -0.959999979 
0.719999969 0 -0.879999995 
0.719999969 0.0799999982 -0.959999979 
0.719999969 0.0799999982 -0.879999995 
0.639999986 0 -0.799999952 
0.639999986 0 -0.719999969 
0.639999986 0.0799999982 -0.799999952 
0.639999986 0.0799999982 -0.719999969 
0.719999969 0 -0.799999952 
0.719999969 0 -0.719999969 
0.719999969 0.0799999982 -0.799999952 
0.719999969 0.0799999982 -0.719999969 
0.639999986 0 -0.639999986 
0.639999986 0 -0.560000002 
0.639999986 0.0799999982 -0.639999986 
0.639999986 0.0799999982 -0.560000002 
0.719999969 0 -0.639999986 
0.719999969 0 -0.560000002 
0.719999969 0.0799999982 -0.639999986 
0.719999969 0.0799999982 -0.560000002 
0.639999986 0 -0.479999989 
0.639999986 0 -0.399999976 
0.639999986 0.0799999982 -0.479999989 
0.639999986 0.0799999982 -0.399999976 
0.719999969 0 -0.479999989 
0.719999969 0 -0.399999976 
0.719999969 0.0799999982 -0.479999989 
0.719999969 0.0799999982 -0.399999976 
0.639999986 0 -0.319999993 
0.639999986 0 -0.239999995 
0.639999986 0.0799999982 -0.319999993 
0.639999986 0.0799999982 -0.239999995 
0.719999969 0 -0.319999993 
0.719999969 0 -0.239999995 
0.719999969 0.0799999982 -0.319999993 
0.719999969 0.0799999982 -0.239999995 
0.639999986 0 -0.159999996 
0.639999986 0 -0.0799999982 
0.639999986 0.0799999982 -0.159999996 
0.639999986 0.0799999982 -0.0799999982 
0.719999969 0 -0.159999996 
0.719999969 0 -0.0799999982 
0.719999969 0.0799999982 -0.159999996 
0.719999969 0.0799999982 -0.0799999982 
0.639999986 0.159999996 -1.27999997 
0.639999986 0.159999996 -1.19999993 
0.639999986 0.239999995 -1.27999997 
0.639999986 0.239999995 -1.19999993 
0.719999969 0.159999996 -1.27999997 
0.719999969 0.159999996 -1.19999993 
0.719999969 0.239999995 -1.27999997 
0.719999969 0.239999995 -1.19999993 
0.639999986 0.159999996 -1.12 
0.639999986 0.159999996 -1.03999996 
0.639999986 0.239999995 -1.12 
0.639999986 0.239999995 -1.03999996 
0.719999969 0.159999996 -1.12 
0.719999969 0.159999996 -1.03999996 
0.719999969 0.239999995 -1.12 
0.719999969 0.239999995 -1.03999996 
0.639999986 0.159999996 -0.959999979 
0.639999986 0.159999996 -0.879999995 
0.639999986 0.239999995 -0.959999979 
0.639999986 0.239999995 -0.879999995 
0.719999969 0.159999996 -0.959999979 
0.719999969 0.159999996 -0.879999995 
0.719999969 0.239999995 -0.959999979 
0.719999969 0.239999995 -0.879999995 
0.639999986 0.159999996 -0.799999952 
0.639999986 0.159999996 -0.719999969 
0.639999986 0.239999995 -0.799999952 
0.639999986 0.239999995 -0.719999969 
0.719999969 0.159999996 -0.799999952 
0.719999969 0.159999996 -0.719999969 
0.719999969 0.239999995 -0.799999952 
0.719999969 0.239999995 -0.719999969 
0.639999986 0.159999996 -0.639999986 
0.639999986 0.159999996 -0.560000002 
0.639999986 0.239999995 -0.639999986 
0.639999986 0.239999995 -0.560000002 
0.719999969 0.159999996 -0.639999986 
0.719999969 0.159999996 -0.560000002 
0.719999969 0.239999995 -0.639999986 
0.719999969 0.239999995 -0.560000002 
0.639999986 0.159999996 -0.479999989 
0.639999986 0.159999996 -0.399999976 
0.639999986 0.239999995 -0.479999989 
0.639999986 0.239999995 -0.399999976 
0.719999969 0.159999996 -0.479999989 
0.719999969 0.159999996 -0.399999976 
0.719999969 0.239999995 -0.479999989 
0.719999969 0.239999995 -0.399999976 
0.639999986 0.159999996 -0.319999993 
0.639999986 0.159999996 -0.239999995 
0.639999986 0.239999995 -0.319999993 
0.639999986 0.239999995 -0.239999995 
0.719999969 0.159999996 -0.319999993 
0.719999969 0.159999996 -0.239999995 
0.719999969 0.239999995 -0.319999993 
0.719999969 0.239999995 -0.239999995 
0.639999986 0.159999996 -0.159999996 
0.639999986 0.159999996 -0.0799999982 
0.639999986 0.239999995 -0.159999996 
0.639999986 0.239999995 -0.0799999982 
0.719999969 0.159999996 -0.159999996 
0.719999969 0.159999996 -0.0799999982 
0.719999969 0.239999995 -0.159999996 
0.719999969 0.239999995 -0.0799999982 
0.799999952 0 -1.27999997 
0.799999952 0 -1.19999993 
0.799999952 0.0799999982 -1.27999997 
0.799999952 0.0799999982 -1.19999993 
0.879999995 0 -1.27999997 
0.879999995 0 -1.19999993 
0.879999995 0.0799999982 -1.27999997 
0.879999995 0.0799999982 -1.19999993 
0.799999952 0 -1.12 
0.799999952 0 -1.03999996 
0.799999952 0.0799999982 -1.12 
0.799999952 0.0799999982 -1.03999996 
0.879999995 0 -1.12 
0.879999995 0 -1.03999996 
0.879999995 0.0799999982 -1.12 
0.879999995 0.0799999982 -1.03999996 
0.799999952 0 -0.959999979 
0.799999952 0 -0.879999995 
0.799999952 0.0799999982 -0.959999979 
0.799999952 0.0799999982 -0.879999995 
0.879999995 0 -0.959999979 
0.879999995 0 -0.879999995 
0.879999995 0.0799999982 -0.959999979 
0.879999995 0.0799999982 -0.879999995 
0.799999952 0 -0.799999952 
0.799999952 0 -0.719999969 
0.799999952 0.0799999982 -0.799999952 
0.799999952 0.0799999982 -0.719999969 
0.879999995 0 -0.799999952 
0.879999995 0 -0.719999969 
0.879999995 0.0799999982 -0.799999952 
0.879999995 0.0799999982 -0.719999969 
0.799999952 0 -0.639999986 
0.799999952 0 -0.560000002 
0.799999952 0.0799999982 -0.639999986 
0.799999952 0.0799999982 -0.560000002 
0.879999995 0 -0.639999986 
0.879999995 0 -0.560000002 
0.879999995 0.0799999982 -0.639999986 
0.879999995 0.0799999982 -0.560000002 
0.799999952 0 -0.479999989 
0.799999952 0 -0.399999976 
0.799999952 0.0799999982 -0.479999989 
0.799999952 0.0799999982 -0.399999976 
0.879999995 0 -0.479999989 
0.879999995 0 -0.399999976 
0.879999995 0.0799999982 -0.479999989 
0.879999995 0.0799999982 -0.399999976 
0.799999952 0 -0.319999993 
0.799999952 0 -0.239999995 
0.799999952 0.0799999982 -0.319999993 
0.799999952 0.0799999982 -0.239999995 
0.879999995 0 -0.319999993 
0.879999995 0 -0.239999995 
0.879999995 0.0799999982 -0.319999993 
0.879999995 0.0799999982 -0.239999995 
0.799999952 0 -0.159999996 
0.799999952 0 -0.0799999982 
0.799999952 0.0799999982 -0.159999996 
0.799999952 0.0799999982 -0.0799999982 
0.879999995 0 -0.159999996 
0.879999995 0 -0.0799999982 
0.879999995 0.0799999982 -0.159999996 
0.879999995 0.0799999982 -0.0799999982 
0.799999952 0.159999996 -1.27999997 
0.799999952 0.159999996 -1.19999993 
0.799999952 0.239999995 -1.27999997 
0.799999952 0.239999995 -1.19999993 
0.879999995 0.159999996 -1.27999997 
0.879999995 0.159999996 -1.19999993 
0.879999995 0.239999995 -1.27999997 
0.879999995 0.239999995 -1.19999993 
0.799999952 0.159999996 -1.12 
0.799999952 0.159999996 -1.03999996 
0.799999952 0.239999995 -1.12 
0.799999952 0.239999995 -1.03999996 
0.879999995 0.159999996 -1.12 
0.879999995 0.159999996 -1.03999996 
0.879999995 0.239999995 -1.12 
0.879999995 0.239999995 -1.03999996 
0.799999952 0.159999996 -0.959999979 
0.799999952 0.159999996 -0.879999995 
0.799999952 0.239999995 -0.959999979 
0.799999952 0.239999995 -0.879999995 
0.879999995 0.159999996 -0.959999979 
0.879999995 0.159999996 -0.879999995 
0.879999995 0.239999995 -0.959999979 
0.879999995 0.239999995 -0.879999995 
0.799999952 0.159999996 -0.799999952 
0.799999952 0.159999996 -0.719999969 
0.799999952 0.239999995 -0.799999952 
0.799999952 0.239999995 -0.719999969 
0.879999995 0.159999996 -0.799999952 
0.879999995 0.159999996 -0.719999969 
0.879999995 0.239999995 -0.799999952 
0.879999995 0.239999995 -0.719999969 
0.799999952 0.159999996 -0.639999986 
0.799999952 0.159999996 -0.560000002 
0.799999952 0.239999995 -0.639999986 
0.799999952 0.239999995 -0.560000002 
0.879999995 0.159999996 -0.639999986 
0.879999995 0.159999996 -0.560000002 
0.879999995 0.239999995 -0.639999986 
0.879999995 0.239999995 -0.560000002 
0.799999952 0.159999996 -0.479999989 
0.799999952 0.159999996 -0.399999976 
0.799999952 0.239999995 -0.479999989 
0.799999952 0.239999995 -0.399999976 
0.879999995 0.159999996 -0.479999989 
0.879999995 0.159999996 -0.399999976 
0.879999995 0.239999995 -0.479999989 
0.879999995 0.239999995 -0.399999976 
0.799999952 0.159999996 -0.319999993 
0.799999952 0.159999996 -0.239999995 
0.799999952 0.239999995 -0.319999993 
0.799999952 0.239999995 -0.239999995 
0.879999995 0.159999996 -0.319999993 
0.879999995 0.159999996 -0.239999995 
0.879999995 0.239999995 -0.319999993 
0.879999995 0.239999995 -0.239999995 
0.799999952 0.159999996 -0.159999996 
0.799999952 0.159999996 -0.0799999982 
0.799999952 0.239999995 -0.159999996 
0.799999952 0.239999995 -0.0799999982 
0.879999995 0.159999996 -0.159999996 
0.879999995 0.159999996 -0.0799999982 
0.879999995 0.239999995 -0.159999996 
0.879999995 0.239999995 -0.0799999982 
0.959999979 0 -1.27999997 
0.959999979 0 -1.19999993 
0.959999979 0.0799999982 -1.27999997 
0.959999979 0.0799999982 -1.19999993 
1.03999996 0 -1.27999997 
1.03999996 0 -1.19999993 
1.03999996 0.0799999982 -1.27999997 
1.03999996 0.0799999982 -1.19999993 
0.959999979 0 -1.12 
0.959999979 0 -1.03999996 
0.959999979 0.0799999982 -1.12 
0.959999979 0.0799999982 -1.03999996 
1.03999996 0 -1.12 
1.03999996 0 -1.03999996 
1.03999996 0.0799999982 -1.12 
1.03999996 0.0799999982 -1.03999996 
0.959999979 0 -0.959999979 
0.959999979 0 -0.879999995 
0.959999979 0.0799999982 -0.959999979 
0.959999979 0.0799999982 -0.879999995 
1.03999996 0 -0.959999979 
1.03999996 0 -0.879999995 
1.03999996 0.0799999982 -0.959999979 
1.03999996 0.0799999982 -0.879999995 
0.959999979 0 -0.799999952 
0.959999979 0 -0.719999969 
0.959999979 0.0799999982 -0.799999952 
0.959999979 0.0799999982 -0.719999969 
1.03999996 0 -0.799999952 
1.03999996 0 -0.719999969 
1.03999996 0.0799999982 -0.799999952 
1.03999996 0.0799999982 -0.719999969 
0.959999979 0 -0.639999986 
0.959999979 0 -0.560000002 
0.959999979 0.0799999982 -0.639999986 
0.959999979 0.0799999982 -0.560000002 
1.03999996 0 -0.639999986 
1.03999996 0 -0.560000002 
1.03999996 0.0799999982 -0.639999986 
1.03999996 0.0799999982 -0.560000002 
0.959999979 0 -0.479999989 
0.959999979 0 -0.399999976 
0.959999979 0.0799999982 -0.479999989 
0.959999979 0.0799999982 -0.399999976 
1.03999996 0 -0.479999989 
1.03999996 0 -0.399999976 
1.03999996 0.0799999982 -0.479999989 
1.03999996 0.0799999982 -0.399999976 
0.959999979 0 -0.319999993 
0.959999979 0 -0.239999995 
0.959999979 0.0799999982 -0.319999993 
0.959999979 0.0799999982 -0.239999995 
1.03999996 0 -0.319999993 
1.03999996 0 -0.239999995 
1.03999996 0.0799999982 -0.319999993 
1.03999996 0.0799999982 -0.239999995 
0.959999979 0 -0.159999996 
0.959999979 0 -0.0799999982 
0.959999979 0.0799999982 -0.159999996 
0.959999979 0.0799999982 -0.0799999982 
1.03999996 0 -0.159999996 
1.03999996 0 -0.0799999982 
1.03999996 0.0799999982 -0.159999996 
1.03999996 0.0799999982 -0.0799999982 
0.959999979 0.159999996 -1.27999997 
0.959999979 0.159999996 -1.19999993 
0.959999979 0.239999995 -1.27999997 
0.959999979 0.239999995 -1.19999993 
1.03999996 0.159999996 -1.27999997 
1.03999996 0.159999996 -1.19999993 
1.03999996 0.239999995 -1.27999997 
1.03999996 0.239999995 -1.19999993 
0.959999979 0.159999996 -1.12 
0.959999979 0.159999996 -1.03999996 
0.959999979 0.239999995 -1.12 
0.959999979 0.239999995 -1.03999996 
1.03999996 0.159999996 -1.12 
1.03999996 0.159999996 -1.03999996 
1.03999996 0.239999995 -1.12 
1.03999996 0.239999995 -1.03999996 
0.959999979 0.159999996 -0.959999979 
0.959999979 0.159999996 -0.879999995 
0.959999979 0.239999995 -0.959999979 
0.959999979 0.239999995 -0.879999995 
1.03999996 0.159999996 -0.959999979 
1.03999996 0.159999996 -0.879999995 
1.03999996 0.239999995 -0.959999979 
1.03999996 0.239999995 -0.879999995 
0.959999979 0.159999996 -0.799999952 
0.959999979 0.159999996 -0.719999969 
0.959999979 0.239999995 -0.799999952 
0.959999979 0.239999995 -0.719999969 
1.03999996 0.159999996 -0.799999952 
1.03999996 0.159999996 -0.719999969 
1.03999996 0.239999995 -0.799999952 
1.03999996 0.239999995 -0.719999969 
0.959999979 0.159999996 -0.639999986 
0.959999979 0.159999996 -0.560000002 
0.959999979 0.239999995 -0.639999986 
0.959999979 0.239999995 -0.560000002 
1.03999996 0.159999996 -0.639999986 
1.03999996 0.159999996 -0.560000002 
1.03999996 0.239999995 -0.639999986 
1.03999996 0.239999995 -0.560000002 
0.959999979 0.159999996 -0.479999989 
0.959999979 0.159999996 -0.399999976 
0.959999979 0.239999995 -0.479999989 
0.959999979 0.239999995 -0.399999976 
1.03999996 0.159999996 -0.479999989 
1.03999996 0.159999996 -0.399999976 
1.03999996 0.239999995 -0.479999989 
1.03999996 0.239999995 -0.399999976 
0.959999979 0.159999996 -0.319999993 
0.959999979 0.159999996 -0.239999995 
0.959999979 0.239999995 -0.319999993 
0.959999979 0.239999995 -0.239999995 
1.03999996 0.159999996 -0.319999993 
1.03999996 0.159999996 -0.239999995 
1.03999996 0.239999995 -0.319999993 
1.03999996 0.239999995 -0.239999995 
0.959999979 0.159999996 -0.159999996 
0.959999979 0.159999996 -0.0799999982 
0.959999979 0.239999995 -0.159999996 
0.959999979 0.239999995 -0.0799999982 
1.03999996 0.159999996 -0.159999996 
1.03999996 0.159999996 -0.0799999982 
1.03999996 0.239999995 -0.159999996 
1.03999996 0.239999995 -0.0799999982 
1.12 0 -1.27999997 
1.12 0 -1.19999993 
1.12 0.0799999982 -1.27999997 
1.12 0.0799999982 -1.19999993 
1.19999993 0 -1.27999997 
1.19999993 0 -1.19999993 
1.19999993 0.0799999982 -1.27999997 
1.19999993 0.0799999982 -1.19999993 
1.12 0 -1.12 
1.12 0 -1.03999996 
1.12 0.0799999982 -1.12 
1.12 0.0799999982 -1.03999996 
1.19999993 0 -1.12 
1.19999993 0 -1.03999996 
1.19999993 0.0799999982 -1.12 
1.19999993 0.0799999982 -1.03999996 
1.12 0 -0.959999979 
1.12 0 -0.879999995 
1.12 0.0799999982 -0.959999979 
1.12 0.0799999982 -0.879999995 
1.19999993 0 -0.959999979 
1.19999993 0 -0.879999995 
1.19999993 0.0799999982 -0.959999979 
1.19999993 0.0799999982 -0.879999995 
1.12 0 -0.799999952 
1.12 0 -0.719999969 
1.12 0.0799999982 -0.799999952 
1.12 0.0799999982 -0.719999969 
1.19999993 0 -0.799999952 
1.19999993 0 -0.719999969 
1.19999993 0.0799999982 -0.799999952 
1.19999993 0.0799999982 -0.719999969 
1.12 0 -0.639999986 
1.12 0 -0.560000002 
1.12 0.0799999982 -0.639999986 
1.12 0.0799999982 -0.560000002 
1.19999993 0 -0.639999986 
1.19999993 0 -0.560000002 
1.19999993 0.0799999982 -0.639999986 
1.19999993 0.0799999982 -0.560000002 
1.12 0 -0.479999989 
1.12 0 -0.399999976 
1.12 0.0799999982 -0.479999989 
1.12 0.0799999982 -0.399999976 
1.19999993 0 -0.479999989 
1.19999993 0 -0.399999976 
1.19999993 0.0799999982 -0.479999989 
1.19999993 0.0799999982 -0.399999976 
1.12 0 -0.319999993 
1.12 0 -0.239999995 
1.12 0.0799999982 -0.319999993 
1.12 0.0799999982 -0.239999995 
1.19999993 0 -0.319999993 
1.19999993 0 -0.239999995 
1.19999993 0.0799999982 -0.319999993 
1.19999993 0.0799999982 -0.239999995 
1.12 0 -0.159999996 
1.12 0 -0.0799999982 
1.12 0.0799999982 -0.159999996 
1.12 0.0799999982 -0.0799999982 
1.19999993 0 -0.159999996 
1.19999993 0 -0.0799999982 
1.19999993 0.0799999982 -0.159999996 
1.19999993 0.0799999982 -0.0799999982 
1.12 0.159999996 -1.27999997 
1.12 0.159999996 -1.19999993 
1.12 0.239999995 -1.27999997 
1.12 0.239999995 -1.19999993 
1.19999993 0.159999996 -1.27999997 
1.19999993 0.159999996 -1.19999993 
